# .PCD v0.7 - Point Cloud Data file format
VERSION 0.7
FIELDS x y z
SIZE 4 4 4 
TYPE F F F 
COUNT 1 1 1 
WIDTH 1437
HEIGHT 1
POINTS 1437
DATA ascii
4.0164766 -1.3590797 -0.67348033
4.0966024 -1.3862556 -0.65980214
3.9393556 -1.3329229 -0.68662244
3.7700577 -1.2503357 -0.68228471
3.8171461 -1.265922 -0.66554141
3.7019515 -1.2276905 -0.69446355
3.6305256 -1.1676881 -0.6693781
3.6251149 -1.1179097 -0.65677536
3.6575985 -1.1282971 -0.68686807
3.6354902 -1.0851829 -0.65896118
3.6574192 -1.0758537 -0.6792118
3.6352248 -1.0252972 -0.68348849
3.668292 -1.0345178 -0.66542155
3.5860145 -0.96785474 -0.68249226
3.6350455 -0.96503347 -0.65990376
3.6571498 -0.99514234 -0.66370946
3.5676625 -0.92351818 -0.67614025
3.5611715 -0.8748219 -0.68242913
3.5684912 -0.82271129 -0.67579275
3.530201 -0.75061554 -0.68921602
3.5660529 -0.7699554 -0.67243099
3.6134126 -0.79213297 -0.65740204
3.5231106 -0.71789867 -0.67251474
3.5922263 -0.73993731 -0.65395325
3.4799652 -0.68227577 -0.67990375
3.5089753 -0.67626911 -0.66243327
3.4831574 -0.64060766 -0.67318588
3.5227368 -0.61693555 -0.6733532
3.579026 -0.58592457 -0.67178661
3.6125069 -0.55331701 -0.67123479
3.6333866 -0.52461153 -0.67939717
3.6553605 -0.51163447 -0.66750264
3.6607053 -0.47618574 -0.68089283
3.6807172 -0.43011045 -0.67278498
3.6812706 -0.38399637 -0.678195
3.6766899 -0.33239627 -0.67295074
3.6809101 -0.28659636 -0.67895913
3.6543097 -0.23371238 -0.68178451
3.6541309 -0.18536159 -0.68216383
3.5478644 -0.12114784 -0.69809371
3.5689023 -0.12176663 -0.67858487
3.6214578 -0.13569593 -0.67650962
3.670481 -0.13135886 -0.65525579
3.5245836 -0.073487774 -0.67719924
3.547601 -0.026881704 -0.65183079
3.5685525 -0.02731392 -0.67932588
3.6104734 -0.0038244464 -0.67554557
3.7423625 0.020356501 -0.68802768
3.7768269 0.033039838 -0.68199337
3.8354228 0.020893618 -0.6543017
3.8842664 0.046472773 -0.68858874
4.0112944 0.047820996 -0.67123067
3.6751146 0.093219727 -0.67628974
3.9340565 0.098948412 -0.69785559
4.3221641 0.079318047 -0.68051791
4.3840342 0.12398694 -0.66157323
4.2979517 -1.4543887 -0.60689968
4.1527061 -1.4052087 -0.6413551
4.2378407 -1.43408 -0.62645656
3.9644234 -1.3146659 -0.6125049
3.8652365 -1.2818394 -0.64834362
3.9143291 -1.2980875 -0.63067144
3.6358891 -1.1811135 -0.63415122
3.6579523 -1.1881654 -0.61378896
3.5937405 -1.1315665 -0.61521184
3.5935647 -1.0840623 -0.61558449
3.6144495 -1.054652 -0.61946487
3.6300783 -1.0233054 -0.62246549
3.6246474 -0.97393405 -0.62192297
3.5803196 -0.91224766 -0.6218347
3.5717394 -0.86521053 -0.62547189
3.5925977 -0.82278955 -0.61763418
3.6134326 -0.7799058 -0.6216203
3.5796192 -0.72289741 -0.62326461
3.5499465 -0.66068727 -0.64685851
3.5668559 -0.67780215 -0.62144244
3.5498164 -0.62547582 -0.64713478
3.5708869 -0.62898594 -0.61550498
3.5759635 -0.58261967 -0.61679852
3.5915649 -0.54169214 -0.6158762
3.6194398 -0.51416224 -0.62893122
3.6717942 -0.47727975 -0.63435328
3.6918051 -0.42690286 -0.61784726
3.6915958 -0.3782433 -0.6345101
3.7210054 -0.38519433 -0.60669994
3.68996 -0.33085024 -0.63135618
3.7208688 -0.34827641 -0.60698956
3.6941967 -0.28232846 -0.62271827
3.691083 -0.23572516 -0.62746328
3.6689045 -0.18571186 -0.62412947
3.6906979 -0.12570043 -0.61615211
3.5792434 -0.050654743 -0.62183213
3.6108029 -0.075215697 -0.63910788
3.6538365 -0.076097235 -0.62251323
3.527693 -0.049988836 -0.64797497
3.5686584 -0.026849907 -0.62022877
3.610559 -0.0034488663 -0.62771165
3.812475 0.021055352 -0.62512583
4.0913897 0.049011365 -0.61685479
4.1754141 0.049930744 -0.60185391
4.2772551 0.07898064 -0.63088715
4.3842988 0.08092729 -0.60314798
4.2620764 0.13527314 -0.61505085
4.3221607 0.10836805 -0.62347937
4.1527524 -1.3771186 -0.55915231
4.016521 -1.3319104 -0.59397203
4.0696211 -1.349485 -0.57489204
3.7244346 -1.2096099 -0.57554513
3.6218064 -1.1281368 -0.57215232
3.6250877 -1.0693641 -0.57316363
3.6249104 -1.0214432 -0.57353961
3.6299868 -0.97497237 -0.57476443
3.5929904 -0.90554845 -0.56942624
3.6140928 -0.93482149 -0.57256818
3.5928662 -0.87391013 -0.57363772
3.6138492 -0.86305463 -0.56117201
3.5926614 -0.82250953 -0.58196735
3.6137166 -0.82721823 -0.56145316
3.6240239 -0.78183901 -0.57541931
3.5922661 -0.71562511 -0.58280587
3.6273699 -0.73859191 -0.57232255
3.5851307 -0.67464489 -0.57405394
3.6132302 -0.69581777 -0.56248403
3.5762234 -0.62957811 -0.56904531
3.5707967 -0.58138841 -0.56859785
3.5831952 -0.52896488 -0.57340991
3.6125228 -0.50468999 -0.56398344
3.6334176 -0.48377481 -0.57947814
3.655333 -0.46261853 -0.5831762
3.6919386 -0.44289362 -0.57694614
3.7327101 -0.42317119 -0.57117379
3.7322989 -0.31203711 -0.57204556
3.7668691 -0.32745692 -0.5648008
3.7283516 -0.28298178 -0.57580286
3.7205024 -0.22982958 -0.56849444
3.6909895 -0.18238826 -0.57087356
3.6761661 -0.13696867 -0.56491423
3.5898046 -0.050566912 -0.5880233
3.6108429 -0.050761364 -0.56754452
4.0648918 -0.058367111 -0.55809617
4.232913 -0.061169915 -0.55311537
3.5757053 -0.018673383 -0.57809943
3.610666 -0.0029793959 -0.56791937
3.7886646 -0.0036582854 -0.57080513
4.232759 -0.033384949 -0.58137059
4.2926416 -0.005665753 -0.5898304
4.3847804 -0.034886584 -0.57319552
4.437067 -0.015777605 -0.56054741
3.8125203 0.021253642 -0.59987134
4.0645452 0.022103159 -0.58565223
4.3525219 0.022847164 -0.59829634
4.4155588 0.023193315 -0.57770443
4.3524151 0.051645979 -0.59852231
4.4153967 0.067016602 -0.57804823
2.0791852 0.12654892 -0.56246918
4.3681688 0.12415702 -0.5867672
2.0511038 0.15224941 -0.55511618
4.2979994 -1.425317 -0.521824
4.3581123 -1.4452134 -0.50028366
4.2088585 -1.3956871 -0.5388543
3.7472112 -1.2166792 -0.52956808
3.770278 -1.2240485 -0.50787735
3.6690247 -1.1668704 -0.53082895
3.6799076 -1.1380204 -0.53677016
3.7018511 -1.1162453 -0.52387631
3.679698 -1.0853887 -0.54529929
3.7090089 -1.0652913 -0.51711857
3.6794879 -1.0245227 -0.53766054
3.7088726 -1.0244013 -0.50927454
3.6573212 -0.97801191 -0.53476042
3.6298954 -0.92660475 -0.52709848
3.6244643 -0.87730396 -0.52669454
3.6347933 -0.83183038 -0.5286327
3.6566722 -0.80069411 -0.53211772
3.656538 -0.764431 -0.53240216
3.6343932 -0.72369581 -0.52948105
3.5921965 -0.66765422 -0.52373391
3.6237993 -0.69760126 -0.5281738
3.5868127 -0.63109767 -0.52322996
3.586637 -0.5836283 -0.52360237
3.5917206 -0.54100758 -0.52869064
3.6126239 -0.51234066 -0.52405936
3.6335039 -0.48339707 -0.53136623
3.6554198 -0.46223846 -0.53477287
3.7328901 -0.44747105 -0.52155042
3.8743234 -0.4263193 -0.51604736
3.7436829 -0.26326239 -0.53704768
3.698365 -0.17428789 -0.53126603
4.1202826 -0.14070129 -0.51042783
4.2041731 -0.11605756 -0.52104789
4.3532095 -0.12046781 -0.51067644
4.1200323 -0.086400196 -0.53814274
4.3530512 -0.091895357 -0.5397324
4.4266715 -0.073999286 -0.52944696
4.3527832 -0.0052725542 -0.51158017
4.4158797 -0.034778439 -0.51875156
4.3526769 0.023526259 -0.51180607
4.4156113 0.023422955 -0.54845721
2.0618844 0.095215276 -0.51650864
2.1130762 0.086845793 -0.51988608
4.3225241 0.066366687 -0.50861698
4.4154491 0.067246243 -0.54880095
2.0452311 0.13862741 -0.51272517
2.0512881 0.12151612 -0.5160327
4.2923217 0.12281279 -0.50553465
4.368247 0.12444449 -0.54341567
1.9897819 0.18775737 -0.52236861
2.0225513 0.16775718 -0.51304942
1.9378409 0.24748972 -0.50607514
1.9746785 0.22079813 -0.5121268
2.0040131 0.20248891 -0.50297838
3.7473001 -1.2162899 -0.47998613
3.7703674 -1.2236569 -0.45799077
3.6361015 -1.1557616 -0.46594778
3.6580794 -1.1630398 -0.49297035
3.6149931 -1.1251043 -0.46344259
3.6652844 -1.1249504 -0.48620883
3.7018497 -1.1038197 -0.49947923
3.668819 -1.0814892 -0.47084516
3.7017424 -1.0628501 -0.47530612
3.7126076 -1.0210062 -0.46478897
3.6794019 -0.97546667 -0.4852896
3.7014847 -0.98110312 -0.45145294
3.635169 -0.91565162 -0.49188888
3.6572733 -0.93727618 -0.47860602
3.6350355 -0.87960672 -0.49217165
3.6570938 -0.88483292 -0.47094971
3.6349022 -0.84356195 -0.49245444
3.6568484 -0.82448947 -0.48352471
3.6346939 -0.77935642 -0.47691986
3.6240182 -0.73319972 -0.47988391
3.5923183 -0.67516708 -0.47215304
3.6133587 -0.69525445 -0.49073318
3.5816455 -0.62976223 -0.47503009
3.5867219 -0.58325541 -0.47611612
3.5918422 -0.54852045 -0.47710979
3.6127169 -0.51597822 -0.48018038
3.6335683 -0.48311377 -0.49528217
3.666553 -0.46924123 -0.47561193
3.7904918 -0.4541986 -0.47943074
3.8864655 -0.44017279 -0.46604204
4.0798569 -0.4086487 -0.46260852
4.1347337 -0.23647925 -0.45665091
4.0925336 -0.19357693 -0.47943395
4.1484308 -0.16898498 -0.48620713
4.2045817 -0.19906016 -0.46470633
4.2634768 -0.17385721 -0.47144622
4.2043262 -0.14365223 -0.49298623
4.2783194 -0.13201714 -0.47343767
4.2930555 -0.061576679 -0.4756535
4.3231578 -0.090710655 -0.47875154
4.2328563 -0.0044993479 -0.4694483
4.2629552 -0.032839589 -0.47255251
4.2627463 0.023567468 -0.47299504
2.0561152 0.098763444 -0.47418585
2.1108277 0.087132521 -0.47266904
2.1755121 0.08957316 -0.4583374
2.2075222 0.09078718 -0.45044592
4.2625895 0.065872759 -0.47332692
2.0400856 0.13016424 -0.47249153
2.0513885 0.11209876 -0.48002964
4.0643878 0.13073567 -0.45188066
4.2034492 0.10688593 -0.46710649
2.0261798 0.17123483 -0.47467539
1.8418719 0.24812362 -0.48726714
1.9887173 0.23537886 -0.48887005
2.008323 0.2195331 -0.46731794
1.8718883 0.25211489 -0.47032654
1.9738786 0.25211626 -0.47617418
3.7704344 -1.2233632 -0.42057586
3.5940371 -1.118197 -0.425082
3.6203122 -1.1264445 -0.42820612
3.6253898 -1.0802147 -0.42922044
3.6688395 -1.0691159 -0.43456471
3.6797361 -1.035791 -0.42394432
3.6794777 -0.96895635 -0.43055582
3.6572928 -0.92081094 -0.43436277
3.6697037 -0.87542927 -0.43100962
3.7011197 -0.85838634 -0.40342668
3.6701026 -0.812518 -0.42947331
3.7010291 -0.83391988 -0.4036186
3.6347218 -0.77109456 -0.44490805
3.656733 -0.76357585 -0.4234947
3.6275842 -0.72956008 -0.43634585
3.5923457 -0.66700077 -0.44051132
3.6291678 -0.67980921 -0.42692944
3.5922136 -0.63137269 -0.44079083
3.6341867 -0.6147114 -0.42207742
3.6562395 -0.61833346 -0.40043101
3.5920379 -0.5838685 -0.44116348
3.6269772 -0.56161207 -0.42964426
3.6670651 -0.57177901 -0.40201598
3.6232843 -0.51720393 -0.44559652
3.6558602 -0.52172685 -0.41329047
3.6820846 -0.47934756 -0.42389861
3.7905817 -0.45380449 -0.42923963
3.8625288 -0.4370617 -0.42480603
3.9875083 -0.42510819 -0.41235867
4.0134668 -0.42818546 -0.4416191
4.0934324 -0.40973112 -0.42353109
4.2643089 -0.37083855 -0.41342905
4.2741542 -0.33414599 -0.42410526
4.1488833 -0.25066647 -0.4031432
4.1768355 -0.25267512 -0.43352112
4.2049656 -0.28217208 -0.42228645
4.134757 -0.22252831 -0.41573417
4.1206799 -0.19435965 -0.40085101
4.1766315 -0.19741899 -0.4339546
4.2045288 -0.17102827 -0.43708101
4.218873 -0.12975729 -0.43891662
4.218667 -0.074034825 -0.43935376
4.1479201 -0.0038962923 -0.43255353
4.1760178 -0.031650506 -0.43525508
4.1478186 0.023546584 -0.43276882
2.0515361 0.098946482 -0.42554721
2.2115593 0.091097265 -0.42929447
4.0917778 0.050713733 -0.40003976
4.147666 0.0647109 -0.43309176
2.0355279 0.12521875 -0.42246592
4.1195216 0.10526055 -0.43049055
2.0249643 0.17158245 -0.4206441
1.5290531 0.23889814 -0.4048169
1.5930275 0.23771641 -0.42165163
1.6180414 0.2413795 -0.40672997
1.684988 0.23946026 -0.44026324
1.7297568 0.24569006 -0.41752166
2.0193951 0.22464272 -0.41993964
1.8872747 0.25435135 -0.43664131
1.9259646 0.25950447 -0.41368133
1.9806131 0.25762075 -0.4277021
2.0074682 0.25666159 -0.41777265
3.7935252 -1.2306272 -0.38549969
3.8175952 -1.2383156 -0.36268562
3.5801449 -1.1212941 -0.37202978
3.6151214 -1.124541 -0.39169177
3.5940118 -1.0821021 -0.36591679
3.6254098 -1.0679171 -0.39330027
3.5938797 -1.046474 -0.3661963
3.6147666 -1.0168437 -0.36861825
3.6577606 -1.0293151 -0.39720684
3.6145897 -0.96906185 -0.3689931
3.6575818 -0.9809643 -0.39758614
3.6354289 -0.92672211 -0.37151474
3.6574025 -0.93261361 -0.39796546
3.668237 -0.87457365 -0.37130639
3.6789682 -0.80435997 -0.3770622
3.701072 -0.8254438 -0.36286089
3.6641572 -0.76478082 -0.3758193
3.661061 -0.71808815 -0.37103426
3.6344628 -0.67454994 -0.39153615
3.6711502 -0.66507143 -0.3611578
3.6783381 -0.63411367 -0.37839779
3.7003174 -0.621557 -0.36446038
3.6781349 -0.57321584 -0.36670113
3.6669507 -0.52296066 -0.36602139
3.6832767 -0.47664809 -0.36803219
3.7791684 -0.45199007 -0.37793675
3.8625975 -0.43676049 -0.38644755
3.9875793 -0.42479724 -0.37275863
4.0800018 -0.40801311 -0.38166046
4.2054253 -0.37908131 -0.36583582
4.2643595 -0.37061685 -0.3851949
4.2245464 -0.32033792 -0.36335146
4.2942595 -0.34492651 -0.38812697
4.1770372 -0.27986884 -0.37798822
4.0928278 -0.21979825 -0.37081403
4.1209307 -0.24866074 -0.37313607
4.0836444 -0.17435157 -0.37938586
4.0789537 -0.12468971 -0.38388318
4.0382314 -0.056411363 -0.36718076
4.083262 -0.075335354 -0.3891972
4.0380831 -0.016338412 -0.36749512
4.065032 -0.016757924 -0.39687407
4.0379348 0.023734538 -0.3678095
4.0648823 0.023582904 -0.39719057
2.0600469 0.096990004 -0.36850619
2.1226645 0.088304803 -0.37686133
2.1526258 0.089231081 -0.39644533
4.0377865 0.063807487 -0.36812389
4.0646834 0.077370673 -0.39761254
2.0354183 0.12558663 -0.37521428
3.3536403 0.11063618 -0.35066813
3.985651 0.10273352 -0.36369637
4.0375905 0.10367045 -0.39518261
2.0290253 0.17225455 -0.37444112
1.5260832 0.24365933 -0.37869138
1.6440649 0.24522951 -0.38607132
1.6620877 0.2479226 -0.36823913
1.7470427 0.24821696 -0.39277446
2.0232468 0.22541602 -0.37384227
1.4781959 0.27381223 -0.37308621
1.6801012 0.25057533 -0.35554519
1.7830529 0.25320768 -0.37714717
1.8090732 0.25686812 -0.35872743
1.9660238 0.26499069 -0.37013751
2.0162828 0.25802931 -0.37952864
1.44885 0.30396721 -0.38427228
1.4658782 0.32544786 -0.36756474
1.4738642 0.37621659 -0.37365985
1.4711283 0.42644811 -0.37253785
1.4777133 0.47647589 -0.37374321
1.3490762 0.52568698 -0.35995612
1.355081 0.52802485 -0.35256097
1.4785835 0.52688146 -0.37515339
1.4479266 0.55349964 -0.38622987
1.4608203 0.55289191 -0.36743972
3.877727 -1.2577264 -0.32987198
3.5322526 -1.1211518 -0.31240866
3.5521877 -1.1160369 -0.33777037
3.5320797 -1.074468 -0.3127749
3.5520139 -1.0690883 -0.3381387
3.5318637 -1.0161129 -0.31323269
3.5728593 -1.0282755 -0.34050933
3.5726745 -0.97383583 -0.33153588
3.5777516 -0.92318523 -0.32411614
3.6144114 -0.90914649 -0.34554476
3.6353602 -0.89039385 -0.33571357
3.668294 -0.86201704 -0.31477305
3.7011373 -0.82101351 -0.31798905
3.6788752 -0.75533593 -0.32874918
3.7009785 -0.77612638 -0.31425878
1.7407291 -0.70717812 -0.30243602
1.8738903 -0.74981844 -0.30086374
3.6787398 -0.71473736 -0.32095137
3.7008421 -0.73528492 -0.30641437
1.6976364 -0.68950242 -0.31742084
1.7216854 -0.69937938 -0.31052199
3.678582 -0.67011714 -0.31724328
1.35482 -0.6014449 -0.31118092
1.4258394 -0.6053561 -0.30882847
1.4934028 -0.62479597 -0.31367078
3.6783788 -0.60921919 -0.30554664
3.7004204 -0.62939191 -0.32357475
1.179148 -0.58494449 -0.31056213
1.2323869 -0.58930373 -0.31030783
1.2512435 -0.57928818 -0.30788746
1.3756375 -0.59723455 -0.31149989
3.6672175 -0.57111192 -0.31705523
3.6340246 -0.51774192 -0.31457958
3.6339128 -0.48160273 -0.30283433
3.6705036 -0.47052583 -0.32219979
3.7677546 -0.4501774 -0.32686234
3.8376818 -0.43343848 -0.33313316
3.9876738 -0.42438269 -0.31995866
4.0800986 -0.40758893 -0.32763547
4.1495385 -0.38723373 -0.31964868
4.1774693 -0.37624139 -0.33574247
4.1492338 -0.30490509 -0.32029456
4.1773405 -0.33469072 -0.32223856
4.0931253 -0.27351758 -0.31618547
4.1210804 -0.27570418 -0.34563494
4.0726991 -0.2318117 -0.32844478
4.0657492 -0.17759275 -0.32830045
4.0723 -0.12401258 -0.32924578
4.0296621 -0.064884596 -0.33077899
4.0654249 -0.083358467 -0.31557733
3.9861357 -0.0023373384 -0.31006882
4.0121665 -0.020283705 -0.32966602
3.9860382 0.024034018 -0.3102757
4.0119872 0.02388563 -0.33887047
2.0699563 0.089547515 -0.32358089
4.0118637 0.063804939 -0.32589671
2.0405169 0.1274613 -0.32821882
2.0563667 0.10446662 -0.32434767
3.2996948 0.1092652 -0.32316828
3.9347563 0.10201792 -0.30692104
3.9597042 0.10236599 -0.33509755
2.0263815 0.17239782 -0.32695186
1.518592 0.24652146 -0.32874802
1.5625865 0.24451967 -0.3203485
1.9982263 0.24317321 -0.30314007
2.0102589 0.22305836 -0.3261348
1.4746317 0.27704149 -0.32342297
1.5051556 0.25598675 -0.31380424
1.6991043 0.25332716 -0.34829694
1.7096459 0.25502223 -0.32208788
1.8191297 0.25848892 -0.32452098
1.9851271 0.2612128 -0.32103264
2.004102 0.25681382 -0.34400153
1.4784006 0.32628125 -0.32451633
1.4741489 0.37500918 -0.32434514
1.4799144 0.42256021 -0.32863912
1.5037979 0.44522372 -0.31016126
1.1363626 0.47533375 -0.30350202
1.1747446 0.47840437 -0.30737609
1.4927759 0.478365 -0.33216786
1.5050797 0.46753225 -0.31161797
1.3418361 0.52326518 -0.3135165
1.361094 0.53039885 -0.34057057
1.4902588 0.52423775 -0.32906112
1.1400189 0.56767333 -0.30527914
1.1768968 0.59594363 -0.31529412
1.4814454 0.55869192 -0.32615754
1.1845191 0.63046676 -0.31558272
1.2136208 0.63885313 -0.32527596
1.1866939 0.65343791 -0.31044173
1.21201 0.65494949 -0.31693894
3.9148359 -1.2695754 -0.29421645
3.8408012 -1.2450744 -0.26324496
3.4722314 -1.101658 -0.28412902
3.4771819 -1.0800877 -0.26749164
3.5215678 -1.0593729 -0.28863835
3.5215025 -1.0360091 -0.27720678
3.5519378 -1.0177354 -0.27587163
3.5685647 -0.97226965 -0.27910167
3.6358666 -0.98585248 -0.25076357
3.6577969 -0.96773654 -0.252471
3.5865619 -0.92527103 -0.29521835
3.614584 -0.92052859 -0.27370024
3.6686718 -0.93428499 -0.25351614
3.6354246 -0.89011061 -0.29962957
3.6647565 -0.87285906 -0.26586297
3.6792171 -0.81974554 -0.27142993
1.8909446 -0.75661474 -0.28483278
1.9269649 -0.75848341 -0.27761224
3.6644192 -0.77586824 -0.25449803
3.7010219 -0.77179217 -0.28163341
1.7657806 -0.71746552 -0.29510182
1.8295908 -0.74360967 -0.26947796
1.8569355 -0.74258548 -0.26128384
3.6788416 -0.71429127 -0.26414096
3.700886 -0.73509258 -0.28192133
1.6436311 -0.67785323 -0.29636031
1.6697029 -0.68864733 -0.27896175
3.6786692 -0.66973478 -0.26854864
1.2931483 -0.60301769 -0.27110258
1.3270569 -0.60509932 -0.27980909
1.3953611 -0.60118991 -0.28832844
1.4323008 -0.61133599 -0.27352476
1.48406 -0.62241679 -0.27740791
1.5065255 -0.6298995 -0.25663042
3.6784892 -0.62109298 -0.26893026
1.185553 -0.59090942 -0.27093586
1.2264352 -0.59226239 -0.2810474
1.2636043 -0.59318948 -0.27523243
1.3350451 -0.59597397 -0.26790506
1.3599657 -0.59446317 -0.2719802
3.6673043 -0.57073069 -0.26850623
3.6340895 -0.51745862 -0.27849561
3.6561418 -0.52049172 -0.25597969
3.666945 -0.47366533 -0.26926774
3.7678437 -0.44978571 -0.27697584
3.8377502 -0.43313926 -0.29502302
3.8628035 -0.43585697 -0.27137217
3.9877446 -0.42407176 -0.28035864
4.0137997 -0.42672503 -0.25561401
4.0801954 -0.40716404 -0.27352113
4.1495876 -0.38701802 -0.29217601
4.1775684 -0.37580705 -0.28042629
4.2055483 -0.36440951 -0.2684927
4.1492829 -0.30468938 -0.29282188
4.1773901 -0.33447355 -0.29458046
4.2053938 -0.32268959 -0.26881999
4.093174 -0.27330479 -0.2890836
4.1212268 -0.27506143 -0.26377311
4.0389686 -0.21607319 -0.28569031
4.0750709 -0.23597832 -0.2700862
4.0388684 -0.1803128 -0.26814023
4.0657721 -0.16382873 -0.2880213
4.0723968 -0.12358945 -0.27535486
4.0384398 -0.064546503 -0.26904842
4.0654731 -0.083147079 -0.28865424
3.9861832 -0.0021300521 -0.28366882
4.0122776 -0.019796886 -0.26766428
3.9860854 0.024241302 -0.2838757
4.0121298 0.024511538 -0.25915399
2.089186 0.087900482 -0.27398598
3.985939 0.063798338 -0.28418604
4.0249801 0.064529978 -0.26030684
2.0416741 0.132461 -0.28167096
2.0634365 0.11122946 -0.27233911
2.4748318 0.10190319 -0.25895345
2.6008236 0.10647129 -0.25489604
3.2357891 0.10776988 -0.27407694
3.9098082 0.10166723 -0.27907556
3.9598448 0.10298379 -0.25641403
2.0307882 0.17316164 -0.27377072
1.5182614 0.24836929 -0.27112561
1.575259 0.24673826 -0.27601743
1.6605898 0.24842335 -0.27435026
1.9982737 0.24338119 -0.27665401
2.0141242 0.21853854 -0.27190921
1.4704416 0.27666098 -0.27163336
1.5031933 0.25582308 -0.29346377
1.7962441 0.25583142 -0.2668719
1.8151973 0.25823691 -0.28772768
1.9382302 0.26223755 -0.26214629
1.9738085 0.25878012 -0.28122494
1.4692756 0.32672423 -0.27166238
1.4781624 0.37438872 -0.27617249
1.0215439 0.44928744 -0.25608221
1.4902654 0.42134351 -0.2755838
1.5045178 0.44059354 -0.29031098
1.0187548 0.46743205 -0.26370555
1.0741577 0.45852229 -0.26665527
1.1251047 0.46775553 -0.27737296
1.1727376 0.47472063 -0.28197196
1.219775 0.4851796 -0.27709371
1.4953372 0.4791666 -0.2789509
1.5037547 0.47653013 -0.27052522
1.0319487 0.51762897 -0.26157892
1.069788 0.53650427 -0.27519861
1.3382158 0.5220533 -0.29042256
1.377171 0.53691334 -0.28516906
1.4837315 0.52523553 -0.27607313
1.5023435 0.50500047 -0.25555456
1.067064 0.58218217 -0.25075296
1.1250429 0.56799442 -0.29137227
1.152932 0.59702027 -0.29362091
1.4351547 0.55437797 -0.25897866
1.4809154 0.56242508 -0.28278068
1.1239018 0.61600661 -0.27159566
1.171132 0.63472128 -0.29072264
1.2007471 0.64514935 -0.29802307
3.7362533 -1.2104713 -0.21904464
3.4723549 -1.1011169 -0.21521889
3.4672337 -1.0766654 -0.23228353
3.5251682 -1.0560745 -0.22678196
3.5835598 -1.030471 -0.23482314
3.614979 -1.0037714 -0.22521041
3.6689165 -0.98249531 -0.21672396
3.7017887 -0.95490575 -0.23120789
3.6741967 -0.92331684 -0.21754314
3.6355524 -0.87734014 -0.20349994
3.6574824 -0.87084502 -0.22902803
3.6353531 -0.82937485 -0.21590495
3.6351752 -0.78131515 -0.21628198
1.7558721 -0.7128585 -0.23535888
1.8289219 -0.73105836 -0.2452442
3.6643054 -0.72713476 -0.21850282
1.6307503 -0.67177647 -0.21850972
3.6787565 -0.66935241 -0.21985401
1.3965112 -0.60097903 -0.20539539
1.4222767 -0.60721344 -0.22488324
1.4873083 -0.62140191 -0.22132549
1.5326403 -0.6406787 -0.21542944
3.6785762 -0.62071061 -0.2202356
1.1773531 -0.58093607 -0.2244457
1.2231536 -0.58135343 -0.22395627
1.2708892 -0.59057307 -0.22024041
1.3212779 -0.59465683 -0.22339351
1.3534374 -0.59115165 -0.22585459
3.6783745 -0.57216436 -0.23279089
3.700429 -0.57548386 -0.20968997
3.6781945 -0.5235225 -0.23317248
3.700248 -0.52655101 -0.21007386
3.6999776 -0.46557727 -0.23504671
3.7224095 -0.48470768 -0.21986026
3.7909186 -0.45232669 -0.24102293
3.8379805 -0.45791999 -0.21860361
3.8628492 -0.43565619 -0.2457999
3.9119115 -0.44116807 -0.22302026
4.0138474 -0.42651638 -0.22904184
4.0803418 -0.42018747 -0.21948004
4.149837 -0.41381383 -0.20954265
4.1776934 -0.38929534 -0.23883082
4.2346821 -0.38069707 -0.22818044
4.2946701 -0.37198895 -0.21730731
4.2343979 -0.31079435 -0.24274744
4.2644806 -0.32709229 -0.23023888
4.3245716 -0.34609088 -0.21904908
4.0932951 -0.27277279 -0.22132888
3.9360526 -0.20977648 -0.22628322
3.9872034 -0.23885038 -0.20260689
4.0131598 -0.24071309 -0.23049949
3.9359562 -0.18374246 -0.22648747
3.9608614 -0.1588041 -0.22813085
3.9867656 -0.13357227 -0.22983441
4.0126686 -0.10799646 -0.23154065
3.9735456 -0.067315094 -0.21648666
4.0124722 -0.054909796 -0.23195712
4.0188479 -0.015017075 -0.21931656
4.0381742 0.024784479 -0.23408796
4.0652199 0.02506265 -0.20872891
2.1158934 0.089053102 -0.24945994
4.0379767 0.078215078 -0.23450713
4.0830688 0.061074745 -0.2189095
2.0422668 0.13731501 -0.22090401
2.0597014 0.11783905 -0.22776182
2.1208904 0.10348538 -0.22197776
2.5642283 0.10544614 -0.21733296
3.2298672 0.10793382 -0.23074122
3.2648981 0.10911255 -0.2116136
3.9858873 0.10376994 -0.23169637
4.0379257 0.10514037 -0.20797239
2.0272076 0.17323059 -0.22632308
1.5223482 0.24937995 -0.22140408
1.5683489 0.24607639 -0.22796479
1.646993 0.24675994 -0.23932588
1.6618642 0.24906319 -0.21393484
1.9936813 0.24315916 -0.23635691
2.009953 0.22114126 -0.22346418
1.4774747 0.2765331 -0.22495422
1.7962868 0.25601852 -0.2430411
1.8186579 0.2592518 -0.21587551
1.9412626 0.26277182 -0.24324314
1.9734668 0.26048884 -0.22755313
2.0043397 0.25785676 -0.21117388
1.4627769 0.32733032 -0.22317499
1.4587221 0.37488294 -0.22297157
1.036302 0.44837272 -0.22175959
1.0769446 0.44450977 -0.21486202
1.1106095 0.44571424 -0.22765361
1.4732872 0.42466429 -0.22426063
0.97938126 0.48154089 -0.22044684
1.0119792 0.46254125 -0.22940944
1.0795647 0.45263854 -0.23810287
1.1177902 0.45705056 -0.24280788
1.4838645 0.47261485 -0.22593738
0.97789341 0.52110058 -0.21594502
1.0132608 0.5333674 -0.24130639
1.384668 0.52805215 -0.21315318
1.423795 0.53610861 -0.2188153
1.4828937 0.52528381 -0.22902241
0.99922472 0.55285567 -0.22160721
1.0321554 0.56362313 -0.23801418
1.0560642 0.58335376 -0.24823128
1.4765244 0.55546439 -0.23697233
3.7248068 -1.2064056 -0.18137413
3.4924178 -1.1073692 -0.19335653
3.57357 -1.1331422 -0.16231498
3.4923322 -1.0842918 -0.19353758
3.5270543 -1.0718396 -0.18396319
3.5523221 -1.0637614 -0.15800445
3.5836658 -1.0300057 -0.17555226
3.6150646 -1.0033959 -0.17737654
3.5940871 -0.99728954 -0.15256809
3.614975 -0.9673717 -0.15374075
3.6579716 -0.97925413 -0.17977124
3.5938234 -0.92603332 -0.1531271
3.6357291 -0.91319615 -0.17916118
3.6578374 -0.94299108 -0.18005574
3.5726733 -0.88511157 -0.15251018
3.6145782 -0.87199551 -0.17840739
3.5864658 -0.82932997 -0.1535731
3.6144018 -0.82421362 -0.17878224
3.6300075 -0.77977026 -0.1679447
3.668061 -0.72749639 -0.17016035
3.6788437 -0.66897011 -0.17115936
1.2232751 -0.60452408 -0.17240344
1.4776022 -0.61697787 -0.18814783
3.6786637 -0.62032825 -0.17154095
1.1872445 -0.59110379 -0.19357242
1.2312928 -0.59307253 -0.18171419
1.2735925 -0.59209532 -0.17098255
1.3284669 -0.58600998 -0.17149006
1.3725077 -0.58869272 -0.18220104
1.4095279 -0.59725797 -0.18873523
3.6785502 -0.58375132 -0.15965348
3.7004726 -0.57114965 -0.17706461
3.7003138 -0.52626258 -0.17333435
3.7298343 -0.48532084 -0.17094676
3.7680922 -0.47401643 -0.18947896
3.8630583 -0.46069884 -0.1816687
3.9619985 -0.44668844 -0.18652819
4.0939932 -0.43478206 -0.1658508
4.1779442 -0.41627192 -0.15563981
4.2059035 -0.41938022 -0.18452585
4.264843 -0.39715773 -0.17321743
4.3247547 -0.374354 -0.17587754
4.2345481 -0.31013396 -0.15864089
4.2645044 -0.31265801 -0.18799828
4.3246741 -0.34564129 -0.16178617
4.35463 -0.34836832 -0.19173793
4.0393577 -0.26866382 -0.1782939
4.066411 -0.27034733 -0.15256187
3.8141291 -0.20241909 -0.1687641
3.8620901 -0.20535354 -0.19645885
3.9362421 -0.23540124 -0.17395441
3.82549 -0.16508129 -0.16957065
3.8619483 -0.16703671 -0.19675943
3.7897546 -0.10077891 -0.16848952
3.813849 -0.12673788 -0.16935782
3.8858075 -0.12961173 -0.19828391
3.9107132 -0.10467208 -0.19976175
3.7896619 -0.075710595 -0.16868618
3.8365688 -0.051453754 -0.1709757
3.9106176 -0.078803428 -0.19996469
3.9734449 -0.01424448 -0.16418585
4.0123706 -0.0014058761 -0.17922929
4.0383182 0.025414446 -0.153855
4.065268 0.025274042 -0.18180582
4.0381699 0.0654874 -0.15416938
4.0921154 0.065952338 -0.18333089
2.0281444 0.13439347 -0.17617846
2.0519361 0.11450032 -0.17416511
2.1629658 0.10563398 -0.17629197
2.5679703 0.10590962 -0.17511672
3.179992 0.10698865 -0.16398315
3.2649369 0.10928235 -0.18998772
4.0249996 0.10516322 -0.16735905
1.9986838 0.18468402 -0.17024268
2.0109382 0.16431852 -0.1817891
1.5893886 0.24941783 -0.19944547
1.998574 0.21108936 -0.17707177
2.0062544 0.22957003 -0.17790227
1.480533 0.27371559 -0.17593433
1.5286338 0.25073227 -0.1716166
1.5954124 0.25042719 -0.18432871
1.605443 0.25206983 -0.16419405
1.6870621 0.25282717 -0.18918012
1.7064323 0.25577402 -0.1631155
1.8661186 0.26595941 -0.17820901
1.9901388 0.26634493 -0.16691914
2.0096159 0.26199287 -0.18846107
1.4704382 0.32447723 -0.17659548
1.4774661 0.37495756 -0.17670265
1.0407861 0.44673663 -0.17818289
1.0737041 0.43768311 -0.17460145
1.1171554 0.43732649 -0.16447842
1.1607196 0.44772431 -0.16327719
1.4867762 0.42554614 -0.17861983
0.97179914 0.48058555 -0.17789678
1.0209707 0.462475 -0.16911051
1.2391152 0.47284508 -0.17006293
1.2571239 0.47544652 -0.16011342
1.4679266 0.47371921 -0.1750648
0.96767294 0.52286494 -0.17319772
1.3834425 0.51558393 -0.17916662
1.4087759 0.52174181 -0.16677588
1.467433 0.51926595 -0.17739952
3.6807542 -1.1672621 -0.13072696
3.7028229 -1.1741421 -0.10701541
3.573525 -1.1093434 -0.13886139
3.6156354 -1.1222875 -0.10468861
3.573436 -1.0737387 -0.11556995
3.5732613 -1.0265123 -0.11594045
3.5678315 -0.97784162 -0.11615731
3.5318947 -0.92109364 -0.10365909
3.562381 -0.92940193 -0.12812299
3.5107031 -0.86911827 -0.103407
3.5516975 -0.87963355 -0.12811399
3.5315924 -0.83939672 -0.10430001
3.5682931 -0.82005179 -0.1197922
3.5933812 -0.78314745 -0.10668936
3.6283205 -0.77503031 -0.12384472
3.6352355 -0.74442029 -0.10831285
3.6571183 -0.72012144 -0.12371662
3.6569245 -0.66855985 -0.12573467
1.2316439 -0.60098249 -0.13167399
1.2836434 -0.60143709 -0.13313876
3.6347907 -0.62427086 -0.10925543
3.6567163 -0.61624324 -0.13421281
1.2332255 -0.59602582 -0.1318181
1.2763671 -0.59396553 -0.12319112
1.3272901 -0.58928287 -0.1279543
1.3665844 -0.5821057 -0.12671518
1.419616 -0.59174669 -0.12911788
3.6565588 -0.56779742 -0.1224913
3.6673853 -0.52105474 -0.12327647
3.6782556 -0.48618084 -0.12389569
3.7221847 -0.46756375 -0.12556992
3.8266351 -0.45580739 -0.12932968
3.9245782 -0.44191176 -0.1328457
4.0670567 -0.43149921 -0.12437286
4.1499844 -0.4131667 -0.12712459
4.2252388 -0.38351473 -0.11109676
4.2948227 -0.37131923 -0.13200888
4.2056165 -0.30758056 -0.11578989
4.2647352 -0.3403073 -0.11719161
3.8141744 -0.2022208 -0.14350961
3.8862312 -0.20611556 -0.12048531
3.9362888 -0.23519661 -0.1478921
4.0393543 -0.24152857 -0.12501484
3.7900538 -0.16315418 -0.13035452
3.8621328 -0.17920664 -0.11994231
3.7669828 -0.14971411 -0.14213353
3.7896366 -0.050346702 -0.1312395
3.8855653 -0.026192406 -0.12189682
3.9105186 -0.026659423 -0.14857703
3.9604676 -0.00078408048 -0.12445269
3.9603705 0.025415301 -0.12465823
3.9732242 0.064835221 -0.12537596
2.0361657 0.13024016 -0.12572092
2.0520213 0.1148739 -0.12658617
2.1213992 0.1042703 -0.12381766
2.426106 0.10131495 -0.10919724
2.4800506 0.10304638 -0.13628277
3.0390909 0.1032182 -0.11646085
3.0840466 0.1043667 -0.13861042
3.9600797 0.10401345 -0.12527485
2.0150595 0.17306194 -0.12475433
1.5775383 0.24826407 -0.11950352
1.9920415 0.23358962 -0.11876125
2.0046508 0.21299103 -0.13112037
1.4803739 0.27677384 -0.12771219
1.5222652 0.25386649 -0.12052152
1.6094688 0.25278595 -0.14861482
1.7214935 0.2582041 -0.12458286
1.8816977 0.26843503 -0.12985224
1.971988 0.26108319 -0.12291094
1.4827852 0.32341465 -0.12865227
1.4887003 0.37309131 -0.12878631
1.0415275 0.44832349 -0.12969327
1.071468 0.4464384 -0.13890621
1.1203245 0.44627401 -0.13338496
1.1517752 0.44455406 -0.13909085
1.4770844 0.42325976 -0.12755178
0.98328161 0.48882622 -0.12366371
1.0179112 0.46412298 -0.12518989
1.0765615 0.45227617 -0.11380344
1.1236269 0.45028552 -0.11724054
1.1830822 0.45897496 -0.12455633
1.2107241 0.47486463 -0.10609949
1.2736284 0.48161426 -0.14526771
1.4627337 0.4724077 -0.12814055
0.96609116 0.51847953 -0.12552892
1.3465315 0.50839108 -0.14463933
1.395133 0.53874713 -0.11914191
1.4124291 0.54204679 -0.13304456
1.4782699 0.525693 -0.12904845
1.5024192 0.54579681 -0.13129961
1.4484254 0.55568731 -0.10760297
1.4837288 0.55780303 -0.11996791
1.5023824 0.55575138 -0.1313777
3.7249141 -1.1809232 -0.070693165
3.6366787 -1.1166002 -0.069306865
3.6587698 -1.1354442 -0.057530191
3.5945225 -1.0798618 -0.080582269
3.5943465 -1.0323577 -0.080954939
3.5731497 -0.97500974 -0.072957627
3.5318935 -0.90923911 -0.080383301
3.5590048 -0.93188125 -0.0651614
3.5317638 -0.87422615 -0.080657981
3.5621166 -0.83478749 -0.081723742
3.6570265 -0.6763016 -0.085335352
1.2707969 -0.60306025 -0.051949903
1.4858418 -0.61939907 -0.061415762
1.5292029 -0.62781584 -0.063335955
1.5744076 -0.63637745 -0.060085714
3.6348343 -0.62408203 -0.085199438
1.2320247 -0.58710569 -0.077440538
1.2743391 -0.58896583 -0.072579525
1.3248811 -0.58402735 -0.0773127
1.3630406 -0.58505601 -0.065174632
1.416764 -0.59930778 -0.063185371
3.6346562 -0.57602227 -0.085576475
3.6565793 -0.55542469 -0.086283639
3.6674504 -0.52073216 -0.086828589
3.7112911 -0.4780817 -0.088254318
3.8151984 -0.45409498 -0.09102156
3.863359 -0.48533991 -0.066392906
3.9372959 -0.46888891 -0.067867041
3.8871334 -0.43724328 -0.092939273
3.9622097 -0.44576174 -0.068502896
4.0401182 -0.42822066 -0.083431281
4.0940633 -0.40696478 -0.071206599
4.1220245 -0.41006431 -0.098980196
4.1499815 -0.38529238 -0.07239452
4.2349062 -0.36548382 -0.074094944
4.2647591 -0.32587302 -0.074950993
4.2345953 -0.28146854 -0.074754052
4.0132995 -0.21312658 -0.097846925
3.8860869 -0.15450689 -0.095157363
3.9871972 -0.18527853 -0.097420633
3.9105158 -0.00038408954 -0.096986435
0.23716542 0.041433454 -0.091423891
0.26560304 0.041326288 -0.092047527
0.31186292 0.044631775 -0.091225795
3.9104199 0.025484577 -0.097189382
0.23883553 0.070679173 -0.092546359
0.26937214 0.075258575 -0.092563741
0.30805951 0.070708454 -0.091209844
2.1767216 0.092703171 -0.061989106
3.8853719 0.051321588 -0.071039289
3.9269409 0.068877704 -0.089310326
0.24239002 0.11390845 -0.094901763
0.26398677 0.12536906 -0.094453759
0.31638557 0.12805033 -0.094435491
2.0446229 0.13925941 -0.076193795
2.0626037 0.11917454 -0.072657451
2.1021707 0.10389333 -0.06689436
2.3971403 0.1004058 -0.092015468
2.9791365 0.10162793 -0.094432496
3.9351296 0.10365498 -0.098422609
0.26558945 0.15215477 -0.096737556
2.034524 0.17500496 -0.072066464
1.5728253 0.2479219 -0.072329044
1.9919192 0.23761338 -0.071073048
2.0135076 0.21336359 -0.071633674
1.4344829 0.28503972 -0.074594371
1.4801596 0.26723865 -0.077295437
1.5151592 0.25359565 -0.081166044
1.6996084 0.25553805 -0.066716835
1.7059246 0.2563751 -0.074513339
1.8605489 0.26596007 -0.079093426
1.9475359 0.26475352 -0.08912982
1.9654509 0.25975797 -0.067567579
1.4416147 0.31340587 -0.066928551
1.4670764 0.33352503 -0.082162336
1.4760567 0.37532189 -0.080377989
1.1148518 0.44773203 -0.090384603
1.4756848 0.42313889 -0.07986632
0.9871217 0.48954773 -0.076655172
1.0222025 0.46678218 -0.076133661
1.0781627 0.45593306 -0.071938954
1.1152546 0.45355034 -0.077051289
1.1877871 0.47425964 -0.072633244
1.2187252 0.48616543 -0.082607187
1.4690384 0.47421396 -0.073157214
0.96660358 0.51693887 -0.07622949
1.3071117 0.52485037 -0.066924855
1.3880068 0.54244018 -0.089387618
1.4689322 0.52539372 -0.073801212
1.3895118 0.55239761 -0.066508286
1.4204479 0.56902623 -0.068056449
1.4731705 0.56953216 -0.067078151
1.4713333 0.60858715 -0.051090151
3.6699371 -1.1628684 -0.021137431
3.6698029 -1.1265323 -0.021386072
3.6806135 -1.0813742 -0.034005437
3.7026813 -1.0877404 -0.0097151892
3.6694438 -1.029503 -0.022110851
1.2648015 -0.60007322 -0.043341849
1.4305191 -0.60494244 -0.026019836
1.4753866 -0.61296725 -0.023651773
1.5211184 -0.62204719 -0.024783373
1.5885222 -0.6417619 -0.008031073
1.6310567 -0.64853317 -0.0029496567
1.1813345 -0.59035337 -0.0051056035
1.2249902 -0.59297496 -0.016708551
1.2773861 -0.59129059 -0.022573652
1.3217276 -0.58535713 -0.023788914
1.3669277 -0.58771574 -0.02796868
4.0402889 -0.45462099 -0.043105219
4.0942121 -0.43382448 -0.043892335
4.1221223 -0.40963581 -0.044405632
4.1502323 -0.42602527 -0.017126212
4.1640601 -0.38631737 -0.031243972
4.2349815 -0.36515361 -0.032041676
4.272337 -0.32611412 -0.032632262
4.2345419 -0.2532433 -0.046938237
4.2846565 -0.27512828 -0.028387925
4.2344379 -0.22523822 -0.04715794
4.2944484 -0.21421549 -0.01950315
4.264286 -0.17031023 -0.019699603
4.2641816 -0.14210671 -0.019920863
3.8855133 0.025820315 -0.04510643
2.1282933 0.091245294 -0.025284713
2.4453359 0.086576618 -0.012746847
2.0437968 0.13554333 -0.024698609
2.0568697 0.11590397 -0.024656123
2.1022453 0.10422134 -0.025119195
2.0231531 0.17445064 -0.024781317
1.5726908 0.24817935 -0.035757169
1.9921201 0.22992831 -0.021895114
2.0071695 0.21081926 -0.033732776
1.4445224 0.28887498 -0.0453001
1.4726857 0.27537701 -0.027045541
1.5236907 0.25272602 -0.026314637
1.5917175 0.25116223 -0.015084754
1.7266747 0.25971904 -0.021964079
1.7626134 0.26463786 -0.045822743
1.8703821 0.26766473 -0.029899344
1.9698315 0.26157284 -0.024815967
1.4479311 0.31352279 -0.045603432
1.4666041 0.32925144 -0.023225563
1.4427905 0.38957852 -0.023585552
1.4698423 0.37231702 -0.022642212
1.4430956 0.41187698 -0.030702736
1.4670942 0.42892161 -0.023123737
0.99525034 0.49569806 -0.04844334
1.021207 0.47691476 -0.030206596
1.0671513 0.4578124 -0.042517148
1.4718329 0.47716609 -0.020830547
0.94971573 0.52763969 -0.0025331625
0.97719347 0.52360183 -0.028786644
1.0230567 0.51692003 -0.020353129
1.0631585 0.52688026 -0.0054582027
1.1946563 0.53275728 -0.025938846
1.4763043 0.5227102 -0.021206299
1.4922582 0.57584918 -0.021459347
1.4784161 0.62278789 -0.020782497
1.4784746 0.65839458 -0.0099723358
3.8412533 -1.2173012 0.041437156
3.703042 -1.1731805 0.015449608
3.6809025 -1.1295381 0.027244484
3.7102172 -1.1263932 0.023259779
3.7114975 -1.0728412 0.029403141
3.9396021 -1.0408188 0.040875416
4.0426078 -1.0417277 0.041738577
1.446937 -0.60205615 0.026299443
1.4722877 -0.60962671 0.020369044
1.5169951 -0.62199658 0.017435847
1.5865567 -0.64076972 0.0129261
1.6260685 -0.64641273 0.0078123831
4.5170908 -0.62869287 0.042454291
1.186759 -0.59170896 0.029061468
1.2269871 -0.5926016 0.026123609
1.2784791 -0.58967966 0.026705518
1.3191792 -0.58341718 0.025884576
1.3687322 -0.58411247 0.028945068
1.4213167 -0.59672034 0.025957411
4.4839082 -0.57952142 0.041794278
4.4507279 -0.53100485 0.041139405
4.2254725 -0.38248947 0.019479612
4.2651176 -0.36729157 0.038317531
4.272438 -0.32571954 0.02393578
4.2647271 -0.26869005 0.023426047
4.2645702 -0.22638476 0.023094159
4.1773705 -0.16609913 0.03601611
4.2344851 -0.19657272 0.0367289
4.2643886 -0.1841903 0.008645189
4.1491623 -0.11000079 0.035343308
4.1772685 -0.13847105 0.035799365
4.2196741 -0.12634325 0.0081162136
4.1490097 -0.068836458 0.03502037
4.2049661 -0.070183881 0.0076511474
4.1768594 -0.027958738 0.034932386
4.2047586 -0.00043205637 0.034949142
4.2336559 0.027468026 0.034971286
2.1463923 0.092337869 0.031334735
2.1610405 0.092793323 0.022091856
2.4953599 0.088173702 0.0035223081
2.5793824 0.090777323 0.020728331
4.2334485 0.08347822 0.03453188
4.2935514 0.05604957 0.035245717
2.0461533 0.14267153 0.0023364048
2.072607 0.12947942 0.024991756
2.1218302 0.10543682 0.023845218
2.0281954 0.17653437 0.020877307
2.0521748 0.15694578 0.043019008
1.9965043 0.22990447 0.0059833489
2.0125027 0.22469449 0.030988213
1.4694351 0.28120345 0.02382117
1.5183293 0.25771621 0.020679379
1.5580961 0.25676444 0.021278078
1.6317631 0.25739509 0.022454415
1.7707245 0.26627818 0.018572837
1.8097588 0.27204788 0.048892077
1.8967086 0.27160564 0.019935805
1.9477669 0.26576683 0.039923605
1.9801691 0.26225036 0.018167788
1.4615897 0.32719216 0.028596854
1.4494288 0.3601476 0.04766573
1.4641798 0.37662157 0.026661441
1.4781646 0.42245939 0.028566713
1.0213112 0.48652598 0.026096914
1.4790528 0.47215006 0.02718618
0.94826001 0.52701288 0.020559883
0.97570163 0.52492785 0.028657991
1.0249351 0.51906455 0.024536455
1.0597489 0.52377033 0.0073452038
1.4775186 0.5224629 0.03017237
1.4784926 0.57449859 0.026321372
1.472697 0.62436914 0.026891453
1.4771979 0.66394675 0.028917018
3.8180838 -1.1592634 0.06604673
3.7248836 -1.1060233 0.064240307
3.7709811 -1.1196834 0.089979179
4.0699301 -1.1021552 0.09628655
3.6807864 -1.0682579 0.087635808
3.7400968 -1.0693543 0.072445773
3.8407352 -1.0648267 0.065649323
3.865808 -1.07166 0.091650143
3.990799 -1.0806609 0.068013474
1.1771572 -0.58279568 0.077624455
1.2239659 -0.58672953 0.074261047
1.2747715 -0.58938175 0.079582229
1.3276286 -0.58569354 0.073781222
1.3621472 -0.57749265 0.0698044
1.4169472 -0.58899236 0.058510959
4.4189258 -0.55583537 0.099566355
4.4839063 -0.5644657 0.071355648
4.5170341 -0.59859437 0.072116166
4.4507804 -0.53077358 0.07059855
4.3556275 -0.49032512 0.068862602
4.4187093 -0.49740431 0.099107958
4.2207031 -0.37699127 0.065965027
4.2650118 -0.32476455 0.066219822
4.2648029 -0.26835752 0.065777302
4.2346387 -0.22435771 0.06498412
4.2947044 -0.22752346 0.09433949
4.1214342 -0.16335255 0.076462612
4.220057 -0.19551943 0.07855998
4.0392432 -0.10627215 0.087891787
4.0752835 -0.12548143 0.070809029
4.0391445 -0.07955686 0.087682202
4.079576 -0.067072406 0.074994855
4.121006 -0.054428972 0.061963607
4.1489067 -0.027456434 0.062170114
4.1769586 -0.027524414 0.09024857
4.2048082 -0.00021343771 0.062792644
4.3538671 -0.00051887892 0.093851902
4.2937074 0.02787086 0.063901342
2.2004917 0.094745904 0.090421684
2.0439987 0.13872123 0.092622548
2.0686691 0.12784977 0.072505526
2.1164188 0.10558734 0.072869577
2.0306022 0.175815 0.075997181
1.5109137 0.24996971 0.090702221
1.9907306 0.23041882 0.085630007
2.0110946 0.22247677 0.063261844
1.4764327 0.27645829 0.079946935
1.5128495 0.2550711 0.065705873
1.5979131 0.25292525 0.096010946
1.6228832 0.25656393 0.086760558
1.7888535 0.2694371 0.095733859
1.8342909 0.27571887 0.073846146
1.8647774 0.28005472 0.07509201
1.9333858 0.27435187 0.067756608
1.9677064 0.26112062 0.07574632
1.4476779 0.33953512 0.074148089
1.4602323 0.3176122 0.078271993
1.4462402 0.37392327 0.068879187
1.460821 0.37773061 0.092729241
1.4475877 0.40719455 0.073288597
1.4599972 0.43171611 0.077574141
0.9917013 0.49808893 0.066854097
1.0099647 0.49351469 0.064901456
1.4772599 0.47475666 0.077093676
0.98106861 0.52153075 0.072782315
1.01451 0.51001459 0.092682153
1.4765716 0.5225631 0.076092698
1.4775664 0.57575572 0.076407894
1.4779261 0.62573242 0.076787047
1.4418573 0.67184168 0.090419047
1.4673455 0.66650867 0.073054917
3.8661373 -1.1480931 0.11782365
3.7027647 -1.0500791 0.11246192
3.7938192 -1.051011 0.1401304
3.8178008 -1.0579584 0.11576405
3.9909408 -1.080039 0.14721346
4.0429492 -1.0945282 0.12239069
3.5947738 -1.0425533 0.13313912
3.6157553 -1.0489244 0.11000149
3.6587586 -1.0372223 0.1353244
1.7823843 -0.66172314 0.14964037
1.5147152 -0.61996245 0.14263962
1.7659322 -0.62483597 0.13303921
1.1786208 -0.58046538 0.12385497
1.22112 -0.5830698 0.12711892
1.2705262 -0.58502817 0.12673602
1.322679 -0.58396739 0.12413707
1.3675909 -0.58139694 0.12246408
1.4221115 -0.59279305 0.1410452
1.7623321 -0.5859105 0.13723847
4.3880682 -0.5806129 0.12813631
4.4189777 -0.55560577 0.12881361
4.4840693 -0.59387821 0.10126588
4.3867798 -0.23248717 0.12540524
4.1495132 -0.16423941 0.11819195
4.1775689 -0.16523048 0.14664847
4.2946501 -0.19889829 0.12254947
4.0263624 -0.11892616 0.12770067
4.0262146 -0.078938864 0.12742999
4.1211038 -0.054000467 0.11653817
4.2051635 -0.055184141 0.14675951
4.2340136 -0.027881784 0.11951724
4.650826 0.029441582 0.13081722
2.0875962 0.09107542 0.14107627
2.1315708 0.092572019 0.12993455
2.1615319 0.093497634 0.11026448
4.7596588 0.061021604 0.10212036
4.8336287 0.077852756 0.11958856
2.042897 0.13663928 0.12416501
2.0647397 0.11404321 0.12909713
2.1264935 0.10634723 0.1153712
4.8724217 0.12658231 0.10404172
4.9914761 0.12957171 0.13963993
1.9916489 0.18732025 0.13006043
2.0188558 0.16417152 0.12694399
1.5052854 0.24924503 0.11031911
1.9444488 0.2351398 0.1328277
1.9659142 0.21663722 0.12118804
1.4805589 0.27755439 0.12655541
1.5152243 0.25596943 0.13610364
1.582624 0.25080654 0.11607274
1.6229795 0.25698611 0.14052729
1.7682444 0.26671195 0.12198951
1.8099091 0.27270696 0.13283306
1.929377 0.26515514 0.12432966
1.9609257 0.25497353 0.10524961
1.4712079 0.32317242 0.12603076
1.4751483 0.37568879 0.12851612
1.4649451 0.42450663 0.12354209
1.4480995 0.4884139 0.12663853
1.4637936 0.47217768 0.12538767
0.99634957 0.54360831 0.10321202
1.0207984 0.52416301 0.10426989
1.0579363 0.52360046 0.10998883
1.4490857 0.50006431 0.14265223
1.474177 0.52681893 0.12480073
0.99281931 0.55163151 0.10277233
1.4855429 0.57821661 0.13175428
1.5059893 0.57438207 0.11788767
1.482579 0.62806481 0.12341462
1.4445832 0.6727336 0.10642412
1.4715943 0.67239422 0.13014285
1.4688218 0.70394003 0.13578327
3.6810508 -1.0918142 0.18521591
3.7030337 -1.0986273 0.16183178
3.8899231 -1.0519003 0.19494367
3.9149046 -1.058966 0.17030181
4.0970044 -1.0818616 0.17801999
3.5738127 -1.0360916 0.16781807
3.626286 -1.0275856 0.17006499
3.7363217 -1.0345503 0.17503679
1.6314442 -0.65778345 0.19129106
1.6849664 -0.66887486 0.18079391
1.7415098 -0.68037617 0.18100604
1.7842982 -0.67507708 0.18526749
1.8121849 -0.68884891 0.16823053
1.4782758 -0.61402351 0.18812667
1.5357881 -0.62861598 0.16494963
1.5713403 -0.63829076 0.17394561
1.6093869 -0.64878368 0.17806529
1.7613587 -0.62448132 0.17671765
1.1783012 -0.5833264 0.17403184
1.2212499 -0.5849843 0.17610557
1.2737548 -0.58732611 0.17677516
1.3231981 -0.58531624 0.1780266
1.3753269 -0.58418602 0.17716841
1.4301637 -0.5968259 0.16157086
1.7530525 -0.57915938 0.17695172
4.4191384 -0.58459169 0.15829007
4.5164194 -0.37367752 0.1899437
4.5491924 -0.32152414 0.17082374
4.5325928 -0.285124 0.18993242
4.5829992 -0.27360636 0.16159213
4.4177589 -0.20467499 0.16993412
4.4828854 -0.23755017 0.17266916
4.2056251 -0.16621865 0.17547581
4.0264339 -0.11861219 0.16768803
4.6159925 -0.00096042268 0.16063635
4.7600613 -0.0012044534 0.19716965
4.8338923 0.030269191 0.16797747
2.021693 0.08229237 0.17681086
2.0526206 0.089903519 0.15230352
4.9917793 0.063793726 0.17321263
2.0327446 0.12490583 0.17357399
2.0525453 0.11027238 0.15214372
4.9915352 0.12983124 0.17269458
1.996967 0.18941782 0.17826252
2.0141006 0.16483279 0.17552587
1.9420718 0.24020004 0.15579249
1.9713787 0.22281811 0.17919728
1.4489008 0.29862487 0.18253212
1.4733622 0.27885094 0.17603101
1.5314312 0.2588093 0.17310967
1.6425014 0.26002252 0.15856129
1.6600441 0.26284957 0.18774487
1.7926463 0.27051851 0.1672263
1.8000197 0.27175102 0.19172573
1.9339945 0.26779327 0.1691875
1.9650636 0.26047042 0.19222538
1.4498338 0.31803429 0.18491606
1.4644408 0.32792598 0.17223936
1.4722999 0.37521997 0.17467585
1.4784235 0.42485726 0.17584895
1.4649175 0.47323528 0.17247857
1.4675065 0.52508706 0.17277028
1.4696716 0.57344157 0.17350864
1.4486562 0.64447784 0.1991698
1.4664111 0.62443995 0.17535084
1.4650904 0.67409271 0.17206013
1.4699177 0.72359353 0.17984283
1.4660835 0.7719537 0.17933327
1.4820119 0.81132603 0.18298805
3.5949893 -1.0657452 0.20465909
3.6160579 -1.0718764 0.22977355
3.9909849 -1.0530459 0.22620659
4.0700235 -1.0744158 0.20376794
3.5949228 -1.0418999 0.2163617
3.6158595 -1.0241883 0.21744023
3.7364101 -1.0341622 0.22446643
3.7939062 -1.0251545 0.24031599
3.840914 -1.0382504 0.21789083
1.811201 -0.70782995 0.2301656
1.5934546 -0.65245205 0.20797828
1.6250002 -0.65480465 0.22810775
1.6550146 -0.66735733 0.21045716
1.726208 -0.68526214 0.22512439
1.7864802 -0.67674577 0.22680762
1.8098825 -0.68941236 0.22985345
1.469329 -0.6098845 0.22578867
1.5644488 -0.64008719 0.22998928
1.6054939 -0.64663196 0.24130754
1.761755 -0.62423581 0.22340584
1.1781567 -0.58201736 0.22556272
1.2255757 -0.58385456 0.22288129
1.2726589 -0.58288878 0.2271826
1.3204315 -0.57676077 0.22491978
1.3822256 -0.5818581 0.22618425
1.7602681 -0.57717866 0.22288175
4.5496531 -0.42140335 0.22180152
4.4834309 -0.35566592 0.23295474
4.5165281 -0.38837466 0.21995699
4.3872581 -0.31883451 0.21321397
4.4183226 -0.320963 0.24396902
4.3711176 -0.27414733 0.22651064
4.3869877 -0.23157507 0.24157318
4.4285607 -0.21452111 0.22421771
4.2646904 -0.16853674 0.20617372
4.6162148 -0.031012217 0.22200572
4.7971215 -0.0010794196 0.23046665
4.9120135 0.031029629 0.2357396
4.9509583 0.030901123 0.2048291
2.0227525 0.089385048 0.22382836
4.9644623 0.08587727 0.22682066
1.9995426 0.1413991 0.2141687
2.0157011 0.12110992 0.22322883
4.8726525 0.12759569 0.23310839
4.9115949 0.12824309 0.20245005
1.9897239 0.17371653 0.22226225
2.0054698 0.15494299 0.20142469
1.9746571 0.22623087 0.22917104
1.4457278 0.29466727 0.21687579
1.4743561 0.27683151 0.2267084
1.5323216 0.259332 0.22387989
1.6606127 0.2632263 0.22627081
1.7940855 0.27117494 0.2267435
1.8000411 0.27184466 0.20365109
1.937557 0.27869773 0.22569185
1.9718698 0.26376137 0.22983839
1.4452821 0.31810677 0.22023323
1.4548244 0.33862567 0.2215544
1.4496503 0.37900016 0.20765811
1.4572307 0.3773475 0.22342795
1.4494867 0.42975786 0.22060494
1.4542463 0.41756591 0.22860774
1.4634649 0.47303358 0.22443429
1.4920009 0.52673435 0.2250084
1.5031173 0.5286262 0.21764517
1.4858885 0.57520765 0.22563589
1.4486911 0.63975465 0.20881528
1.4803064 0.62616915 0.22342291
1.4486378 0.65415078 0.20870234
1.4651427 0.67484421 0.22820736
1.4831681 0.72270685 0.21854837
1.5043669 0.7438193 0.24119982
1.4875755 0.77604139 0.22343902
1.5063086 0.75975168 0.24140267
1.4916569 0.81429911 0.22290564
3.6591976 -1.084433 0.28091371
3.6229761 -1.0338205 0.26188794
3.6589074 -1.0120018 0.26824391
