# .PCD v0.7 - Point Cloud Data file format
VERSION 0.7
FIELDS x y z rgb
SIZE 4 4 4 4
TYPE F F F U
COUNT 1 1 1 1
WIDTH 1097
HEIGHT 1
VIEWPOINT 0 0 0 1 0 0 0
POINTS 1097
DATA ascii
1.1781464 -0.32494721 -0.32115039 4282399279
1.1278445 -0.2743496 -0.34182006 4283518018
1.1789081 -0.27492607 -0.32295445 4283124034
1.2131954 -0.27669224 -0.30416644 4282794548
1.1255469 -0.22434257 -0.34003073 4284307017
1.1765344 -0.22610626 -0.32081011 4283649345
1.2096418 -0.22572203 -0.30337057 4283123514
1.122359 -0.17515559 -0.33787891 4284768597
1.1748327 -0.17486595 -0.31780019 4284570961
1.210098 -0.17262316 -0.30421984 4284241739
1.0893168 -0.11482488 -0.34333014 4284834136
1.1280651 -0.12675001 -0.33350301 4284637786
1.1768258 -0.12410924 -0.31261283 4284703579
1.208858 -0.12379965 -0.30031791 4284702808
1.0863396 -0.077895299 -0.34429863 4285032027
1.124629 -0.073834702 -0.33124194 4284966494
1.1768489 -0.073839009 -0.31332573 4284966749
1.0888096 -0.031988032 -0.34539482 4285031771
1.1208799 -0.023931142 -0.33332166 4285098077
1.1733121 -0.027828792 -0.3143132 4285032286
1.2050377 -0.027684458 -0.30014274 4285032285
1.0833776 0.023131536 -0.3441948 4284966234
1.1222415 0.02295617 -0.33090562 4284900185
1.1748216 0.023795476 -0.31238917 4284769116
1.2029127 0.024122868 -0.30003187 4285032284
1.0806807 0.072798096 -0.34149241 4284965210
1.1252342 0.076814219 -0.3276107 4284900442
1.1714723 0.072780088 -0.31085286 4284835419
1.0834626 0.12317709 -0.3427949 4285162844
1.1250253 0.12614478 -0.32670337 4285163099
1.1721699 0.12395008 -0.30793592 4285031771
1.0746937 0.17573842 -0.34332344 4285688674
1.1212097 0.17538141 -0.32532391 4285491550
1.1650484 0.17557946 -0.30760944 4285228637
1.0749301 0.22555642 -0.34085739 4286082915
1.1274608 0.22440206 -0.32132843 4285491548
1.1667053 0.22513762 -0.30564097 4285491554
1.0717243 0.27612549 -0.33910757 4286346090
1.1258421 0.27502048 -0.32025 4285951847
1.1637167 0.27264184 -0.30545717 4285754726
1.0464118 0.33672497 -0.34563759 4286806645
1.0747396 0.32456958 -0.3365404 4286478193
1.1245892 0.32637024 -0.31717387 4286215279
1.1614064 0.32378423 -0.30363324 4285754984
1.042702 0.37536585 -0.34415004 4286608755
1.0752385 0.37561944 -0.32962063 4286609523
1.1259392 0.37448174 -0.31074187 4286150001
1.1608955 0.37100556 -0.30114123 4285624424
1.0419704 0.42637247 -0.34347013 4284701016
1.0731789 0.42607585 -0.32598695 4284964188
1.1259997 0.4262605 -0.30969876 4285820783
1.1589663 0.42564553 -0.30169746 4286017905
1.0312904 0.47503901 -0.34139603 4285949281
1.0760326 0.4742752 -0.32471997 4285753185
1.1158608 0.47534993 -0.30455101 4285029211
1.0319495 0.52660435 -0.34270793 4285026373
1.0746248 0.52505392 -0.32449025 4285027404
1.1161076 0.52541119 -0.30492914 4284896076
1.0371196 0.56271225 -0.33966005 4284828997
1.0778611 0.57339776 -0.32227486 4284894531
1.0942348 0.60353774 -0.31752715 4284762945
1.2372879 -0.28036404 -0.27898192 4281213463
1.2354202 -0.22317521 -0.2929022 4283188793
1.2723527 -0.22545187 -0.27251017 4283123774
1.315088 -0.21886629 -0.2528851 4282662710
1.2381794 -0.17737782 -0.29123831 4283912771
1.2738992 -0.17245197 -0.27308375 4284044616
1.3170109 -0.17612232 -0.25642776 4283386690
1.2335215 -0.12445782 -0.29109398 4284637526
1.2743952 -0.12447625 -0.27174929 4284702805
1.3175305 -0.12698546 -0.2532168 4284241737
1.2172093 -0.076379538 -0.2946046 4284965977
1.2737348 -0.07191959 -0.27043092 4284834906
1.3188555 -0.074834354 -0.253883 4284571223
1.2342802 -0.024502659 -0.29104602 4285097821
1.2757732 -0.021434337 -0.27128351 4284966236
1.3127648 -0.02231277 -0.25313312 4284703322
1.2339202 0.028554246 -0.2913976 4284900698
1.2753322 0.027085334 -0.27368215 4284900443
1.3140981 0.026221087 -0.25593725 4284965978
1.194363 0.07546214 -0.2983118 4285032288
1.2260835 0.078932501 -0.28759781 4284900698
1.2771785 0.073290907 -0.27050841 4284900700
1.3181089 0.073499158 -0.25492749 4284835424
1.1901851 0.12907632 -0.29770264 4285097051
1.2223005 0.12558164 -0.2853367 4284900699
1.2715555 0.12563545 -0.26425606 4284966237
1.3144537 0.12123273 -0.25242463 4284965984
1.1882542 0.18030557 -0.29650089 4285360994
1.2224241 0.17554766 -0.28347751 4285163360
1.272082 0.17321479 -0.26206973 4285032033
1.3112699 0.17744143 -0.25009832 4284900700
1.1927007 0.22550683 -0.29514292 4285689703
1.2260599 0.22558862 -0.27951831 4285294943
1.273924 0.22609212 -0.26019996 4285163876
1.186368 0.27689114 -0.29190275 4285623394
1.2238805 0.27343714 -0.27704418 4285426271
1.2683692 0.2769635 -0.25948897 4285492324
1.1847113 0.32547972 -0.28858083 4285623141
1.2244945 0.32382247 -0.27202028 4285491812
1.2645497 0.32537302 -0.25730741 4285558378
1.182687 0.37742847 -0.28915507 4285492069
1.2232952 0.3763184 -0.27283704 4285360487
1.2653508 0.37391704 -0.25808018 4285230702
1.1826423 0.42559451 -0.28459513 4285952621
1.226967 0.42594671 -0.26551107 4285558125
1.2633438 0.42260796 -0.25462589 4285559668
1.1381749 0.47368824 -0.29351866 4283780686
1.1766903 0.47796285 -0.27764565 4284175445
1.2244221 0.47554573 -0.26159272 4285360752
1.2611986 0.47628549 -0.2513054 4285097835
1.1410093 0.53180403 -0.28335825 4283448627
1.3355674 -0.23181939 -0.24113467 4281676326
1.3405743 -0.16045144 -0.24412006 4282925628
1.3742563 -0.17638889 -0.23839214 4282531639
1.4246678 -0.1753017 -0.21793845 4282137396
1.4510331 -0.17926519 -0.20658606 4281743412
1.3395886 -0.12485395 -0.24421988 4283584323
1.3761384 -0.12399638 -0.23263042 4283254847
1.4229053 -0.12380803 -0.2123289 4282662706
1.3421253 -0.076324292 -0.24506843 4284111695
1.3719485 -0.072525188 -0.23117295 4283782215
1.4202579 -0.077940628 -0.21161871 4283123258
1.3380837 -0.020888321 -0.24071462 4284308565
1.3735924 -0.024916535 -0.22482388 4283716167
1.4149327 -0.024734374 -0.20725708 4283386944
1.3389912 0.025821278 -0.24084611 4284440410
1.3767486 0.024959862 -0.22543009 4283913292
1.4207888 0.028499598 -0.20980181 4283649859
1.3415374 0.071123339 -0.24255323 4284572765
1.3724172 0.078733988 -0.23100956 4284571994
1.4199106 0.073761091 -0.21341999 4283979082
1.3419507 0.12648253 -0.24365754 4284835170
1.3748788 0.12773143 -0.2243351 4284505686
1.413337 0.11839866 -0.20812809 4284308049
1.3341622 0.17348219 -0.24072559 4284769884
1.3699665 0.17380446 -0.22108862 4284702550
1.4076535 0.17586401 -0.20309916 4284505434
1.3192554 0.22489116 -0.24267797 4284900962
1.3760217 0.22478007 -0.21840648 4284571221
1.4144369 0.22341785 -0.20792854 4284768090
1.2927294 0.29074711 -0.24746741 4285557606
1.3145355 0.26812214 -0.24238101 4285360744
1.3737833 0.27583879 -0.21649806 4284702553
1.4143535 0.27493402 -0.2048313 4284701781
1.2931259 0.322301 -0.24635613 4285492329
1.3243017 0.32551736 -0.23455483 4285294692
1.3727236 0.32752162 -0.21738112 4285031520
1.4078597 0.32153416 -0.20774566 4284833624
1.2925377 0.37635428 -0.24810813 4285098598
1.3302604 0.37601918 -0.23313302 4285163880
1.3665971 0.37344196 -0.20827225 4285361259
1.2836015 0.42921531 -0.2468262 4285032811
1.3281871 0.42641583 -0.22964703 4285229931
1.3687809 0.42152193 -0.20467024 4285164396
1.2356994 0.49980643 -0.24647203 4284702813
1.2851645 0.47792846 -0.24221988 4284966508
1.3260603 0.47487438 -0.22419697 4285031781
1.3661058 0.47432014 -0.20394199 4285032041
1.2066801 0.50439137 -0.24880387 4280889666
1.2757152 0.52300835 -0.22804973 4283914337
1.3271081 0.52364832 -0.21440087 4284638055
1.3210653 0.5598914 -0.20675012 4284375145
1.5269578 -0.2092035 -0.16161144 4282072638
1.4704965 -0.17806411 -0.18863457 4282071864
1.5218906 -0.17199771 -0.16508539 4282203965
1.4766357 -0.12698735 -0.19041891 4282268979
1.5324714 -0.12390473 -0.16280808 4282400823
1.4443463 -0.068472959 -0.19691448 4282926396
1.4744093 -0.074901462 -0.18441592 4282598203
1.5336994 -0.074533269 -0.15951943 4282532666
1.4405357 -0.025354149 -0.19672494 4283256391
1.4706149 -0.023022383 -0.1819099 4283257169
1.5232574 -0.022283735 -0.15757364 4282995025
1.4433595 0.027116446 -0.19751818 4283584842
1.4729837 0.027497046 -0.18199873 4283520598
1.5265546 0.028158149 -0.15828593 4283258455
1.444151 0.089226313 -0.19810711 4283978825
1.4703884 0.074469201 -0.18526047 4283520339
1.5203208 0.078365542 -0.15803187 4283718495
1.4365822 0.12843864 -0.19417469 4283980626
1.4727365 0.12254549 -0.18027045 4283651928
1.525016 0.12759796 -0.15961416 4284112483
1.4312869 0.1770685 -0.19065523 4284440927
1.4759856 0.17272569 -0.17299941 4283849306
1.518845 0.17612594 -0.15316817 4283521623
1.4380985 0.22704422 -0.19355541 4284834398
1.4711156 0.22413136 -0.17413092 4284637792
1.5160592 0.22882442 -0.15376228 4283782742
1.4385489 0.27113241 -0.19514088 4284899676
1.4747968 0.27907276 -0.1734179 4284834912
1.5111446 0.26314777 -0.15352947 4284440154
1.4301307 0.33000517 -0.19487727 4284964949
1.4694985 0.3236689 -0.17237049 4284965726
1.3935969 0.37742686 -0.19339751 4285558380
1.4270961 0.37360764 -0.18147844 4285164909
1.4803406 0.37229058 -0.16367261 4285098342
1.3974375 0.4247193 -0.19429033 4285295727
1.4271823 0.42405456 -0.17936127 4285690743
1.470006 0.42407867 -0.15990213 4285625465
1.3930392 0.47424746 -0.1940697 4285229677
1.4262038 0.47581425 -0.17964441 4285296499
1.464131 0.47370818 -0.16010231 4285428341
1.3761246 0.52907777 -0.19553699 4284769641
1.4227346 0.52347761 -0.17831947 4285098353
1.4639409 0.52481079 -0.16091505 4285230706
1.3313576 0.57494467 -0.18110165 4284703852
1.3748555 0.57259291 -0.18369959 4284769131
1.4271941 0.57414335 -0.17033556 4284770157
1.4578969 0.57119 -0.1567367 4285165169
1.4297271 0.60744011 -0.16452055 4284771187
1.4554644 0.61582768 -0.15544701 4285099641
1.5705272 -0.21798486 -0.13759783 4282336322
1.6224574 -0.21754529 -0.12882915 4282007618
1.6710755 -0.2188234 -0.11063647 4282007364
1.5713842 -0.17920995 -0.14579667 4282270274
1.6271484 -0.17524645 -0.12952121 4282204225
1.6749285 -0.17511888 -0.11122338 4282203455
1.5843389 -0.12443245 -0.13826507 4282401858
1.6306529 -0.12521972 -0.12660879 4282335806
1.672111 -0.12504265 -0.11140193 4282204481
1.5843041 -0.076006614 -0.13731562 4282467136
1.6315291 -0.070864968 -0.12065729 4282467399
1.6664604 -0.078264639 -0.10808973 4282337099
1.5757288 -0.02339036 -0.13696161 4282797907
1.6217352 -0.022780953 -0.11488302 4282204996
1.6547602 -0.04692895 -0.10537912 4282072370
1.5751543 0.02873347 -0.13729905 4282930522
1.626508 0.023981925 -0.11478523 4282732630
1.5492613 0.084871411 -0.14063476 4283915875
1.5810506 0.071651824 -0.13002209 4283324768
1.6272544 0.072456926 -0.10986144 4282996313
1.5492098 0.10024983 -0.14074659 4284048743
1.5773268 0.1227135 -0.13484873 4284442477
1.6256243 0.12785807 -0.1138517 4283784288
1.5437051 0.17656964 -0.14082468 4284114280
1.5797495 0.17641389 -0.13125183 4284508269
1.6290126 0.17282571 -0.1139276 4283785060
1.544145 0.21928856 -0.14118835 4283651669
1.5745519 0.22546774 -0.13481143 4283981151
1.6306565 0.22368227 -0.11659816 4283521628
1.6577864 0.24371165 -0.10775033 4283717984
1.4995446 0.29605424 -0.14765818 4284834916
1.5284786 0.27539575 -0.14304529 4284111701
1.5717534 0.27614343 -0.1290203 4283519055
1.6315193 0.27629232 -0.11708024 4283322451
1.6593602 0.2713908 -0.10805894 4283454551
1.4979627 0.32057917 -0.14769031 4284965472
1.5209186 0.33637404 -0.142684 4284769118
1.58099 0.3262288 -0.120136 4283584592
1.6168264 0.31675062 -0.10870124 4283255371
1.525533 0.37674034 -0.14313331 4285032036
1.5815384 0.37458318 -0.11425163 4284243291
1.4948504 0.42888933 -0.14820997 4285493877
1.5156527 0.41601616 -0.14275709 4285493621
1.5754603 0.4253473 -0.1194474 4285559929
1.6086713 0.42881677 -0.1059747 4285297528
1.4894964 0.47843948 -0.14475818 4285428087
1.524696 0.47727266 -0.13028724 4285559676
1.5717796 0.47420004 -0.11663372 4285494392
1.6040335 0.47008929 -0.10598519 4285560443
1.486908 0.52260101 -0.14265659 4285362293
1.5173141 0.52578294 -0.12594453 4285559927
1.5767436 0.52500957 -0.10981194 4285626239
1.3435768 0.59653229 -0.12582132 4285558650
1.4852906 0.57398206 -0.14343488 4285362036
1.5188259 0.57715881 -0.12506847 4285625464
1.5706781 0.57510144 -0.10874891 4285691773
1.3865093 0.6057806 -0.14819102 4285295221
1.423973 0.62182665 -0.13801411 4285297018
1.4800142 0.6249361 -0.14063397 4285362296
1.5252237 0.62457484 -0.12222748 4285625725
1.5563132 0.62687802 -0.10408731 4285953662
1.4803749 0.65576714 -0.1288791 4285361521
1.5209612 0.66531819 -0.11826386 4286019714
1.5580302 0.66885817 -0.10966239 4286283144
1.6917619 -0.23830873 -0.087700769 4282404435
1.7231504 -0.22591008 -0.079832867 4282206538
1.7718004 -0.22226137 -0.057301044 4282206799
1.6961931 -0.17178565 -0.09587945 4282006588
1.7289025 -0.17521624 -0.077056691 4282138686
1.7750219 -0.17428659 -0.053399898 4282139973
1.6960427 -0.12691374 -0.096205786 4282270273
1.7223291 -0.12441032 -0.079392374 4282138176
1.7653625 -0.1265531 -0.053450093 4282072381
1.6856654 -0.072558567 -0.093772545 4282140238
1.7215012 -0.07765837 -0.072322972 4282075214
1.7573078 -0.08523301 -0.053503133 4281943369
1.6462921 -0.018290406 -0.078678869 4280885276
1.7053443 -0.048456684 -0.057782281 4282141005
1.6495953 0.0079070199 -0.094529957 4282272596
1.675143 0.022979004 -0.078607909 4282404182
1.7099738 0.032854795 -0.057425573 4282338129
1.6736417 0.070086427 -0.092182577 4283062111
1.719166 0.07317061 -0.07143344 4282864990
1.7600633 0.085366577 -0.058719669 4283192927
1.6747746 0.12659457 -0.092082158 4284574066
1.7283471 0.12326763 -0.072382279 4284180078
1.7654716 0.12456835 -0.055306133 4283917423
1.6774563 0.17716053 -0.089008048 4284640371
1.7210929 0.17049243 -0.070515253 4284640117
1.7685945 0.17738062 -0.055793382 4284574066
1.6791075 0.22269146 -0.090379514 4284771442
1.7259991 0.22796512 -0.066199377 4284574836
1.7530025 0.20500886 -0.055509798 4284377708
1.6814073 0.27491009 -0.092766598 4284506984
1.7300071 0.2730386 -0.066679791 4284508013
1.7526916 0.29782161 -0.056184813 4283850335
1.6380018 0.33600849 -0.093578279 4283914845
1.6762277 0.32416689 -0.081667095 4283585366
1.7223837 0.32076338 -0.061699942 4283519318
1.6258019 0.37947172 -0.083525531 4282795077
1.6789974 0.3757138 -0.066490561 4284508525
1.7084712 0.36425233 -0.055292554 4284705650
1.6257186 0.4745551 -0.085808173 4285494140
1.6654619 0.47683933 -0.06026851 4285363068
1.6248075 0.52461165 -0.086119734 4285560442
1.667437 0.52161348 -0.060675465 4285495166
1.6318047 0.57397032 -0.089799263 4285692030
1.67784 0.57576287 -0.064941399 4285953918
1.5860205 0.62981379 -0.09373679 4286151554
1.6277989 0.62536901 -0.08570078 4286151811
1.6779401 0.62481207 -0.066522993 4286283652
1.5403292 0.69225878 -0.083110601 4287924109
1.5835521 0.67674685 -0.089953363 4286546056
1.6303884 0.67937142 -0.073686548 4286613136
1.6623236 0.67249054 -0.059786815 4286743692
1.5982746 0.71248215 -0.075621255 4287073676
1.6278495 0.71698314 -0.064587027 4286678411
1.6542984 0.71510947 -0.056187525 4286940559
1.8204271 -0.26182798 -0.015571058 4283392615
1.8310468 -0.23051275 -0.034470171 4282075217
1.8737326 -0.22499734 -0.011980145 4282338389
1.7927573 -0.16422039 -0.042158198 4282008902
1.8261676 -0.18358064 -0.034729011 4282403147
1.8740422 -0.17125574 -0.013920555 4282271822
1.9013726 -0.18108788 -0.0069439346 4282601549
1.7851363 -0.12804122 -0.042236552 4282072641
1.8312575 -0.12288004 -0.025858397 4282072638
1.8806779 -0.12304432 -0.0072682612 4282139467
1.7814677 -0.074725553 -0.036616985 4282073411
1.822207 -0.079091854 -0.021810394 4282400836
1.858049 -0.084485129 -0.0074413391 4282270535
1.7375604 -0.049448848 -0.030082341 4282074439
1.7272233 0.022806 -0.030487452 4282205258
1.7766514 0.028488157 -0.019600568 4282271308
1.8216256 0.039950684 -0.01216095 4282402641
1.7485271 0.054161251 -0.042674728 4282336592
1.7792438 0.06667655 -0.037621565 4282402884
1.8209158 0.074789897 -0.02557688 4282535248
1.8644772 0.084755532 -0.011776496 4282601812
1.7943037 0.12048467 -0.044290386 4283718241
1.8300352 0.12357822 -0.027822576 4284045660
1.8747456 0.12422396 -0.011498979 4283784035
1.7970638 0.19200648 -0.044884458 4284441715
1.8222371 0.17144443 -0.032203447 4284309607
1.8626832 0.17402674 -0.0093476782 4284507500
1.7770956 0.22789727 -0.039571583 4284507498
1.8293085 0.22199889 -0.017966516 4284375653
1.7761112 0.27233562 -0.035466846 4284375141
1.8306559 0.26940194 -0.01468035 4284441192
1.8537951 0.28991044 -0.010149917 4284506732
1.7425811 0.33665243 -0.044606037 4283782749
1.7751446 0.3227323 -0.03466874 4283321939
1.8260633 0.32690531 -0.015092131 4283255888
1.8597302 0.30926278 -0.01031929 4283521114
1.7264577 0.37564906 -0.040666889 4284640113
1.7679979 0.37073699 -0.026406948 4284573807
1.8248976 0.3798995 -0.0082403366 4284574063
1.7217484 0.40334454 -0.01044159 4285033586
1.7837476 0.4055509 -0.0067405822 4284904059
1.7194126 0.48141131 -0.027089534 4285364356
1.752088 0.49530256 -0.0227766 4285692555
1.6989498 0.52563763 -0.044921089 4285495167
1.7237637 0.52742809 -0.032911841 4285823619
1.7746449 0.52066642 -0.012880391 4286021000
1.7247972 0.57607305 -0.035472464 4286284171
1.7630191 0.58011687 -0.014155019 4286414731
1.806356 0.57618415 -3.4343277e-05 4286021260
1.6960475 0.64850819 -0.040121175 4286742925
1.7220474 0.62584078 -0.035698477 4286348935
1.7660825 0.62095284 -0.014467278 4286152070
1.813188 0.62640369 -0.00038662367 4286282893
1.6863438 0.67590368 -0.040724114 4286612364
1.7311558 0.67511296 -0.02192237 4286611595
1.771179 0.6748423 -0.0085926428 4286612364
1.8068879 0.6661886 -0.0006873823 4286021522
1.6827844 0.72721374 -0.040389858 4286809228
1.7358447 0.71912456 -0.020367239 4286742921
1.7796705 0.7290746 -0.0050773434 4286809487
1.6931841 0.75979668 -0.035270132 4287465868
1.7361579 0.77300596 -0.02462537 4286346367
1.7751856 0.77240872 -0.0093162721 4287006607
1.8031583 0.78445607 -0.0015536814 4286941586
1.7660741 0.80371457 -0.013476357 4286277221
1.8140421 0.81918675 -0.0017859126 4287859856
1.8292907 -0.26533407 0.015804235 4283655529
1.8724426 -0.25825983 0.03095044 4283459184
1.8745906 -0.24011052 0.0060235877 4282537056
1.9262503 -0.23010668 0.021679282 4282602334
1.9773852 -0.22258693 0.037529819 4283062880
2.0100634 -0.21183309 0.045988824 4283391075
1.9238797 -0.1769727 0.0056560058 4282469722
1.974847 -0.17909472 0.024479182 4282864738
2.0169322 -0.17264529 0.045855835 4283128678
1.8951389 -0.10517143 0.0050810697 4282205006
1.9282206 -0.12632747 0.011729179 4282533969
1.9696727 -0.13320333 0.028906533 4282667356
2.0042729 -0.12507749 0.045238424 4282799201
1.7800133 -0.050511055 0.039831672 4283189841
1.8253551 -0.064435147 0.01680265 4282927695
1.8737382 -0.078976914 0.01720755 4282730572
1.9211013 -0.085532025 0.02196932 4282992972
1.9681427 -0.090004817 0.037728656 4283126618
2.0001829 -0.098326676 0.044957008 4283390304
1.779719 0.019873085 0.0039588325 4282142811
1.8351884 0.032201789 0.010057405 4282142812
1.8631467 0.044786073 0.010110404 4282339423
1.8829685 0.067545399 0.0088003613 4282208606
1.9084933 0.091825128 0.0121194 4282406241
1.9213675 0.12836127 0.0098310197 4283785579
1.8884196 0.18573494 0.0060918629 4284312182
1.9137362 0.16905621 0.012643404 4284049267
1.8861643 0.2261578 0.0089310706 4284444021
1.8926756 0.2732189 0.0048445528 4284509304
1.9098505 0.28577226 0.014921892 4284377720
1.8832753 0.33428514 0.0068851626 4283520089
1.9157418 0.3161549 0.01054244 4283719273
1.7695279 0.38705623 0.024704441 4283126873
1.8745656 0.36759484 0.0078630811 4284375914
1.8044387 0.4021982 0.0012263886 4285232515
1.7676989 0.48822492 0.029912908 4286218639
1.8191885 0.53045356 0.0079120388 4286087053
1.8703084 0.53431791 0.037609819 4285956235
1.8468753 0.5766046 0.012281444 4285823625
1.8678952 0.57479233 0.020760957 4286350224
1.9145465 0.57075745 0.043362752 4286219151
1.8467727 0.60717952 0.012059079 4286284944
1.8658601 0.62742555 0.019180266 4286415241
1.9257456 0.63054478 0.042381309 4286415241
1.8335425 0.67583025 0.011449657 4286414987
1.8769357 0.67913061 0.028943868 4286546828
1.9186176 0.67071009 0.046159748 4286547598
1.8267077 0.72796237 0.015095326 4286613136
1.873336 0.72144073 0.03885477 4287006612
1.90452 0.70170444 0.049746931 4286677649
1.8217125 0.77432144 0.010635922 4287269525
1.8674773 0.77212399 0.031743027 4287336089
1.9072415 0.78491169 0.049226791 4287730591
1.8353518 0.8104654 0.01660322 4287729818
1.8727143 0.82523847 0.038699474 4287992477
1.9071569 0.81015879 0.049043186 4288124576
2.0712938 -0.25951293 0.08879222 4284576128
2.0303276 -0.23189829 0.064523555 4283391591
2.0746698 -0.22578935 0.081883527 4283918706
2.1106274 -0.2089183 0.090066746 4284378746
2.0249569 -0.17328484 0.059440244 4283391850
2.0674951 -0.1771282 0.074360035 4283391590
2.1128449 -0.17424457 0.089911595 4283983471
2.0270333 -0.11976514 0.062503532 4282931303
2.0687165 -0.12107553 0.079522677 4282931818
2.1138949 -0.13942757 0.08970689 4283587942
1.8834461 -0.066604868 0.067146249 4283850089
2.0131848 -0.09005896 0.062981069 4283785324
2.0532162 -0.087460682 0.086813249 4283194731
1.8272473 0.038469903 0.058422975 4282008664
1.954738 0.046659604 0.068816945 4284773252
2.1538115 0.035711899 0.090117216 4283786618
1.9246743 0.0588177 0.054932568 4279640103
2.0126941 0.060905777 0.07074102 4284773250
2.0736477 0.076007105 0.072763778 4284444546
2.1342962 0.087238692 0.084281154 4284049529
2.1537395 0.057082936 0.089961782 4283654257
2.1211004 0.12225413 0.076934963 4282864227
2.153501 0.1283197 0.089443699 4284181117
2.0907996 0.18026276 0.072617352 4281021249
2.1213326 0.17577761 0.083125979 4283128680
2.1534054 0.15681444 0.089236468 4283918973
2.0924101 0.22196636 0.072375223 4280693057
2.1179264 0.22457474 0.087277904 4283984245
2.0771708 0.27957794 0.074204661 4281418587
2.1113472 0.27282074 0.086660199 4283261042
2.0457304 0.3459594 0.063079044 4280041044
2.064261 0.32774618 0.078274041 4282077277
2.0228448 0.37712446 0.074245088 4282340197
2.0622556 0.35566327 0.097691424 4284049273
1.9234896 0.42829734 0.084172927 4285694619
1.9788291 0.41372338 0.058276687 4279521903
2.0236824 0.418466 0.079807706 4283464601
2.0584829 0.43687421 0.096932076 4285954944
1.7932252 0.49525633 0.059960809 4286088328
1.8422441 0.50862581 0.098208986 4286677649
1.9191127 0.53753054 0.076779 4286350483
1.9409626 0.57334071 0.058133826 4286350738
1.9754853 0.57684934 0.07887774 4286416018
1.9736762 0.6182456 0.061726261 4286218640
2.0161598 0.62853044 0.0868802 4286350998
1.9814585 0.67912102 0.067432538 4286809488
2.0271018 0.67505342 0.088020012 4286613139
1.928449 0.72954541 0.063011453 4287204499
1.968493 0.72264951 0.075354144 4287138707
2.0240159 0.72482872 0.09322302 4287007382
1.9302968 0.77508438 0.062750176 4287533213
1.9743419 0.77151704 0.082703389 4287992992
2.0033603 0.77080148 0.091900498 4287796636
1.9245332 0.82379013 0.062200174 4288124837
1.9752798 0.82721424 0.082002409 4287928483
2.0032489 0.80397254 0.091659233 4288254884
1.9129997 0.86346042 0.061513118 4288320412
1.9695841 0.87086141 0.084006563 4288124577
1.9839199 0.90164423 0.09003301 4288320162
2.1254911 -0.27067375 0.12492646 4284970625
2.1783714 -0.25898266 0.13649519 4284970109
2.1327255 -0.22943914 0.10809211 4284838015
2.1782515 -0.23028202 0.12186728 4284969852
2.2097478 -0.22279452 0.13452393 4285035134
2.1778924 -0.17991871 0.10707378 4284772728
2.2272077 -0.18433911 0.12725657 4284838521
2.2683058 -0.16541067 0.1338726 4284706939
2.180367 -0.12259955 0.10678544 4284180600
2.2414095 -0.12633231 0.12459271 4284575868
2.2915006 -0.14449856 0.1426369 4285035650
2.3088913 -0.1113209 0.14347094 4285035648
1.9371645 -0.055752382 0.12023897 4284574326
1.9902091 -0.057551712 0.14326525 4284904312
2.0532148 -0.073683485 0.11390256 4284575873
2.2172918 -0.09550593 0.1157653 4284377465
2.282295 -0.083494991 0.1416402 4284969345
2.1168795 0.021460047 0.10270091 4284248187
2.1848679 0.031381875 0.11555249 4285034363
2.2129102 0.029286392 0.13658008 4284969853
2.2200725 0.073308945 0.12208276 4284641410
2.2254555 0.12494091 0.12203686 4284904325
2.1780362 0.17772192 0.10935994 4284312443
2.2217603 0.17134915 0.13123566 4285167750
2.1421926 0.22709428 0.10245866 4283917940
2.1788981 0.22360592 0.11868505 4284905606
2.2202585 0.22769965 0.14302197 4285496460
2.1406944 0.27649862 0.10203511 4283787636
2.1940579 0.27591497 0.11914529 4285364875
2.2240911 0.27592516 0.13923365 4285497234
2.1296866 0.33170676 0.10821998 4284246647
2.170897 0.32335213 0.11753929 4284971143
2.2219262 0.32335189 0.1350559 4285233288
2.0901721 0.38807452 0.11265509 4284115826
2.1283984 0.37382752 0.11959031 4284970113
2.1734414 0.36696976 0.13176869 4285496977
2.0882845 0.42924702 0.11225971 4284506983
2.1273727 0.42725027 0.13135533 4282531396
2.1800776 0.43315992 0.14615288 4282993490
2.2156577 0.41064456 0.14873311 4285365384
1.8875821 0.52093714 0.12566437 4286548117
1.991081 0.56167328 0.10599221 4286613137
2.0413809 0.62283784 0.10831608 4286482063
2.0676942 0.62659788 0.12348302 4286481812
2.1008961 0.63376409 0.13935047 4286284692
2.0717218 0.67302799 0.11309145 4286285715
2.1223462 0.67661375 0.13491096 4286679448
2.0339813 0.74196506 0.10706592 4287336606
2.0680473 0.72675776 0.11593068 4287007899
2.1235659 0.73045373 0.13459618 4287271073
2.1516376 0.71287656 0.14224666 4287007390
2.0301507 0.78235722 0.10928825 4287927970
2.0694222 0.77138042 0.13040651 4287730340
2.0254595 0.82620394 0.11276689 4287927973
2.0660119 0.82208437 0.13564947 4288059043
2.0200593 0.8709839 0.11213405 4287862436
2.0605845 0.87467223 0.13490964 4287796644
2.0327229 0.91279316 0.11391684 4288255651
2.0711663 0.92717111 0.13874105 4287796128
2.2393022 -0.27389252 0.16505685 4285101697
2.274972 -0.27091661 0.1726281 4285298824
2.3360047 -0.27078572 0.19264551 4285035388
2.2498591 -0.24559145 0.15568399 4285101697
2.2798135 -0.22793755 0.16366598 4284970112
2.3250244 -0.22032398 0.18529756 4284970110
2.2916777 -0.18984875 0.15813752 4285363842
2.316041 -0.17358607 0.16890974 4285167748
2.3620389 -0.18025741 0.19412835 4285232772
2.329849 -0.12388392 0.16800098 4285101445
2.3872812 -0.12712798 0.19580868 4285167492
2.3308451 -0.085425332 0.16779788 4284838784
2.3893995 -0.087780215 0.19570549 4285166722
2.2356396 0.027197577 0.17010541 4284970115
2.2488625 0.051923044 0.15352024 4285363592
2.2739887 0.069900721 0.16520759 4285233031
2.319798 0.083880715 0.17863764 4285364361
2.3518157 0.084942698 0.1914407 4285167756
2.2709458 0.12738666 0.15449162 4285233804
2.3166356 0.12977062 0.17292576 4285233033
2.3606856 0.12425066 0.19188663 4285495947
2.2404156 0.18516263 0.15200666 4285168269
2.2819912 0.16956842 0.16632305 4285167240
2.3384786 0.18510593 0.18965514 4285627790
2.3515553 0.1627277 0.19087496 4285431182
2.2785084 0.2274366 0.1724382 4285234062
2.3163784 0.2141428 0.18765511 4285563023
2.2401423 0.2667233 0.15141346 4285366675
2.2868726 0.27535045 0.17838266 4285496463
2.2479908 0.31224814 0.15162696 4285562510
2.2707143 0.3265799 0.1643782 4285562255
2.3099949 0.32832092 0.1863368 4285561740
2.2437434 0.3859531 0.15081862 4285628046
2.2711487 0.37053347 0.16285662 4285496976
2.3218367 0.37604195 0.1869655 4285890968
2.2342892 0.43138433 0.16960382 4285956495
2.315737 0.40574136 0.18626165 4286089112
1.9412488 0.53548783 0.15490675 4286877846
2.0181458 0.5694651 0.1609208 4287073690
2.0720921 0.59121251 0.17199731 4286876824
2.1241927 0.62112868 0.17202269 4286942364
2.1829443 0.64374423 0.18826616 4286942620
2.1751485 0.6701678 0.16338661 4286877081
2.2188296 0.67609429 0.18382971 4287140002
2.2547863 0.69431114 0.19422978 4287533728
2.1926215 0.7262544 0.15947527 4287139234
2.232657 0.72452241 0.17727551 4287140259
2.2636783 0.72699517 0.19478343 4287598496
2.134084 0.78504515 0.15469071 4287666087
2.1718676 0.77573991 0.16623819 4287665575
2.21053 0.76146019 0.17521797 4287731361
2.259007 0.77790648 0.1940175 4287797159
2.1160221 0.82767284 0.15304247 4287994022
2.1552982 0.82854426 0.17025784 4287928485
2.2323344 0.82811201 0.19132207 4287797416
2.1247158 0.87753016 0.15902779 4287993769
2.1511829 0.86268139 0.16968432 4288124841
2.2201505 0.88250953 0.18987121 4288124845
2.1173105 0.92546415 0.15750664 4287731625
2.1820011 0.92549986 0.18621702 4288191655
2.0998476 0.95379609 0.15094882 4287733163
2.120842 0.96327037 0.16651335 4287667370
2.1713574 0.9715004 0.19220683 4288059820
2.3441889 -0.30242202 0.24007142 4284705140
2.3181477 -0.29900837 0.22207296 4285100418
2.3687148 -0.27465138 0.21100825 4285035908
2.4307761 -0.28210682 0.23260352 4285298048
2.3685575 -0.22766954 0.21066658 4285035647
2.4324222 -0.22605336 0.23236921 4285167231
2.3852675 -0.18997413 0.21187268 4285101180
2.4243796 -0.16933848 0.22056578 4285299076
2.4817269 -0.16533889 0.23660821 4285233799
2.4305451 -0.12157738 0.21537629 4285431180
2.506598 -0.12573637 0.23868409 4285431181
2.3173528 -0.069237515 0.20505898 4285298826
2.3893981 -0.071748219 0.22722831 4285167490
2.4174335 -0.088871449 0.21399526 4285628559
2.486481 -0.09172444 0.23654562 4285759373
2.4240074 0.1152875 0.21718073 4285168008
2.4657736 0.12119753 0.2385712 4285299337
2.4218001 0.17521267 0.21253628 4285497234
2.4756002 0.17074086 0.2336912 4285562767
2.3423221 0.23976371 0.20509803 4285496723
2.3853757 0.22812049 0.21423711 4285561486
2.4214156 0.22337373 0.22820233 4285431438
2.4604504 0.21872534 0.24008866 4285694354
2.3422179 0.27075869 0.20487261 4285561998
2.3792362 0.27490804 0.22385614 4285430415
2.4352508 0.28113475 0.24523704 4285957528
2.4553556 0.25082779 0.24748096 4285628559
2.3710668 0.32105634 0.21496673 4285956755
2.4320898 0.32906577 0.24458487 4286219669
2.3693216 0.37232563 0.21330868 4286088341
2.4162667 0.3749904 0.24266574 4286417050
2.3333776 0.42429334 0.20817722 4286351255
2.1830163 0.62939715 0.20283937 4287270565
2.2469909 0.64749378 0.22365205 4287140001
2.2389235 0.65995979 0.20791233 4287205024
2.2718842 0.67700231 0.21846431 4287205534
2.3295596 0.68617105 0.24208052 4287402404
2.2977486 0.71496564 0.21309112 4287467936
2.3237071 0.73448354 0.22698933 4287534246
2.3203952 0.77574265 0.22254805 4287731112
2.2753637 0.82880002 0.21018296 4288190375
2.3264139 0.8209343 0.22437164 4287731880
2.2692192 0.87173402 0.20930341 4288124835
2.3375804 0.87440705 0.23124278 4287862950
2.1980047 0.932338 0.20214909 4288454313
2.2353742 0.92570394 0.21067397 4288125352
2.2653968 0.92297709 0.21862277 4287863714
2.3228872 0.9244616 0.23557989 4287929001
2.2325785 0.96905363 0.21996434 4288191913
2.2754581 0.96476465 0.23941742 4288322731
2.1817577 1.0051595 0.20010655 4288451761
2.2297418 1.0195885 0.219327 4287795875
2.2707627 1.0231111 0.23850797 4287862189
2.3722322 -0.30610418 0.25863171 4285034359
2.4278066 -0.31345108 0.28880164 4285296252
2.4672115 -0.30278844 0.25251904 4285296248
2.5382822 -0.3118234 0.27656826 4285231484
2.5923431 -0.31866044 0.29959664 4285298297
2.4871137 -0.2724812 0.25432226 4285363839
2.5738566 -0.28236428 0.28019887 4285364616
2.4902835 -0.2234489 0.25430292 4285429889
2.5810227 -0.23204176 0.28062347 4285298558
2.524132 -0.17659251 0.25740221 4285233543
2.5918846 -0.1902516 0.28150541 4285233026
2.6028035 -0.16530821 0.2825098 4285496975
2.5449727 -0.12779483 0.25917205 4285101960
2.591655 -0.12170024 0.28100687 4284970114
2.6082041 -0.13109659 0.29150543 4285298310
2.4864526 -0.075161308 0.25288722 4285166974
2.5380094 -0.085330397 0.26660818 4285166981
2.5805655 -0.095521167 0.27963063 4284707970
2.4268148 0.13602564 0.29359579 4285825170
2.4958329 0.11439403 0.26078451 4285496974
2.4757621 0.15484099 0.29939014 4285628561
2.5244722 0.17399006 0.2633931 4285562767
2.5613453 0.17651483 0.29263896 4285825424
2.4954603 0.22164541 0.25174034 4285628811
2.5132432 0.21902542 0.26605254 4285825429
2.5685081 0.22792909 0.29310405 4285957526
2.4886556 0.27058825 0.26719403 4286153878
2.5683374 0.27890605 0.29273331 4286088340
2.4450846 0.34717697 0.27816284 4286154650
2.4718275 0.31794405 0.26505288 4286088084
2.5256481 0.33299899 0.28747699 4286088090
2.5572257 0.3116163 0.29123682 4285957526
2.4273021 0.37679207 0.26789138 4286483101
2.4750769 0.35124785 0.28156582 4286679711
2.3959284 0.68961132 0.27018002 4287403173
2.3727884 0.72234809 0.25158322 4287664551
2.4181378 0.72797155 0.2724565 4287599786
2.5038469 0.72839087 0.29885018 4287534246
2.3888667 0.77456707 0.25295523 4287927463
2.4369607 0.78188598 0.27423844 4287730852
2.3954244 0.8322472 0.25326335 4287732137
2.4304712 0.8282159 0.27317682 4287928227
2.4226105 0.88167715 0.26393798 4287928231
2.513366 0.87269151 0.29901114 4287600295
2.3721049 0.92647421 0.25009868 4288125870
2.4288924 0.92422479 0.26834917 4288060073
2.5098689 0.92139256 0.29825348 4287796903
2.3489206 0.98781568 0.26274782 4288061355
2.3766601 0.96769422 0.26605985 4288061105
2.4140575 0.95074534 0.27045494 4287994540
2.4796791 0.9762587 0.29422313 4287928235
2.5030978 0.95216161 0.29722276 4287993259
2.3398275 1.0150889 0.26151967 4287994792
2.3948123 1.030744 0.2835784 4287797161
2.4238846 1.0108554 0.28723335 4287863469
2.4629207 1.0024512 0.29201519 4288060331
2.3400047 1.0616925 0.26121891 4287665583
2.3879116 1.0752683 0.28243753 4287731627
2.5704556 -0.33250797 0.33970919 4285166715
2.6142993 -0.30421245 0.30200887 4285298814
2.6944363 -0.33167636 0.32919523 4285428604
2.7063842 -0.31533039 0.33052889 4285100670
2.6325271 -0.27162048 0.30386958 4284904061
2.7222736 -0.28129044 0.33221799 4285363581
2.6360207 -0.21975793 0.30391198 4285428606
2.7220924 -0.22729731 0.33182535 4285692550
2.6358747 -0.17618577 0.3035951 4285298566
2.6938396 -0.15355128 0.32789978 4285233801
2.7059348 -0.18114133 0.32955298 4285692807
2.6302559 -0.14101937 0.30271 4285495684
2.6757436 -0.12590258 0.32551986 4285496205
2.7177889 -0.12800762 0.34861073 4285627528
2.6136045 -0.096812248 0.30050045 4285036170
2.6761692 -0.099299133 0.33430329 4285758347
2.515707 0.17373765 0.30409449 4286087824
2.5686498 0.19406825 0.31036204 4286088858
2.4755144 0.23684622 0.31518957 4285627539
2.5395448 0.22568114 0.31078702 4286088600
2.4073601 0.278543 0.306205 4285696664
2.5400357 0.27609655 0.30633584 4286219923
2.4852931 0.30351445 0.31598139 4285958035
2.5302022 0.32871503 0.31147653 4286220442
2.5778482 0.74104071 0.32480001 4287927716
2.5269256 0.78106058 0.30128139 4287666341
2.5850618 0.77735513 0.32547218 4287600553
2.5208602 0.82509571 0.30024502 4287862949
2.592217 0.83092868 0.32601875 4287731625
2.5700645 0.87508619 0.32288891 4287600297
2.5589044 0.92224115 0.3211416 4287862698
2.63503 0.92309684 0.34831569 4287666089
2.5395591 0.97430247 0.31831607 4287928235
2.6210892 0.9791742 0.34606141 4287863206
2.4928031 1.0476002 0.31184649 4287533991
2.5132244 1.0226758 0.31462365 4287667369
2.6209438 1.0225643 0.3457458 4287797418
2.4860339 1.0777514 0.31077608 4287665574
2.5877204 1.0870166 0.3408455 4287205794
2.6244614 1.0673745 0.34591228 4287731880
2.4375162 1.1297827 0.30422714 4287796646
2.4625921 1.1085919 0.3075729 4287731629
2.5125563 1.1308811 0.33045486 4287600552
2.5656321 1.1118526 0.33771053 4287468970
2.4924433 1.1632866 0.32753339 4287469993
2.5024858 1.1513106 0.32896337 4287731370
2.780036 -0.34249014 0.36726302 4285231746
2.8114481 -0.31871459 0.36187077 4285560193
2.8640113 -0.32481509 0.38757282 4285493889
2.7922509 -0.26109394 0.35902604 4285364099
2.8173583 -0.29150847 0.36243895 4285756795
2.8703568 -0.27816734 0.3881065 4285429379
2.7791202 -0.22305727 0.3570897 4285430151
2.8701658 -0.22123744 0.38769245 4285494915
2.7418895 -0.15642813 0.35188147 4285364619
2.7664919 -0.18544216 0.35522035 4285889158
2.8299577 -0.16180395 0.38188863 4285692035
2.8570328 -0.18238455 0.38566411 4285758859
2.7787814 -0.11267505 0.37468255 4285956232
2.8048842 -0.14169249 0.37838516 4285824906
2.5482957 0.04153984 0.39329246 4286153367
2.5746737 0.075772241 0.38862276 4286022547
2.6580567 0.11287013 0.39212969 4285496975
2.4159546 0.42375886 0.35431328 4281359496
2.4749911 0.41735324 0.36306426 4282410123
2.5680208 0.41546372 0.37679851 4282938530
2.6120667 0.40503475 0.38336587 4284186019
2.474853 0.46660408 0.37910196 4285697963
2.6438 0.76848549 0.35054803 4287665829
2.6700449 0.7804535 0.37173936 4287600040
2.7027857 0.79448736 0.39410645 4287534757
2.6786315 0.82640606 0.36551067 4287732141
2.7026956 0.82132524 0.39391121 4287665836
2.672967 0.8742801 0.3626565 4287666093
2.7145367 0.86982918 0.39532888 4287600044
2.6743023 0.92791939 0.37127829 4287666089
2.7263756 0.91872996 0.39674363 4287666348
2.666132 0.97817969 0.36978546 4287601066
2.7261941 0.97282237 0.39635023 4287600553
2.6719778 1.0245975 0.37029338 4287797419
2.743995 1.033727 0.39856288 4287929264
2.6898699 1.0580883 0.37258613 4287666345
2.7077613 1.091936 0.37487635 4287666599
2.5985918 1.1347187 0.35920593 4287535016
2.6353114 1.1243566 0.37028858 4287468708
2.6740017 1.1228923 0.38171852 4287664549
2.7256804 1.126312 0.3952339 4287467946
2.5947857 1.1760827 0.35838842 4287535267
2.6425381 1.1625271 0.38272539 4287140778
2.665451 1.1901534 0.38591769 4287012286
2.5818253 1.213109 0.35631084 4285360501
2.669328 1.2272744 0.38623786 4287008171
2.6542294 1.255635 0.38381863 4283975779
2.8576484 -0.35219386 0.41526732 4284969076
2.9302185 -0.32280952 0.41583702 4285231485
2.9629371 -0.32646921 0.44007626 4285428348
2.939395 -0.27536628 0.41680712 4285560451
2.977082 -0.26904386 0.44177327 4285494658
2.9391675 -0.20735076 0.41631249 4285429117
2.9602757 -0.23827662 0.41949645 4285364357
3.011302 -0.23257038 0.44657335 4285626242
2.9180598 -0.17684147 0.41313142 4285364867
2.8835514 -0.12694949 0.40793067 4286022027
2.7172139 0.079225183 0.41907042 4285693330
2.8041675 0.099819988 0.43233204 4285562775
2.7780101 0.13565148 0.40966782 4286284690
2.8831165 0.12127153 0.44435421 4286021016
2.90996 0.16061974 0.42896047 4285891733
2.9518979 0.18224329 0.43499956 4286287000
2.956434 0.22165108 0.43540147 4285956245
2.8555126 0.2901569 0.42005163 4285235357
2.9095731 0.27610666 0.42812058 4284643210
2.9516368 0.26034576 0.43443152 4284971408
2.8424189 0.31711262 0.41793773 4285037980
2.8683209 0.3483381 0.42154643 4284976046
2.9372137 0.38549811 0.43145591 4285830323
2.7400956 0.40599796 0.40224302 4284779952
2.86813 0.40526807 0.42113239 4285370806
2.916055 0.44085157 0.44727123 4286287003
2.5258067 0.49273703 0.40350732 4286614168
2.6448524 0.48009121 0.40521017 4286418086
2.7278857 0.47662127 0.41803014 4286352291
2.8029251 0.47075394 0.42963433 4286811551
2.8949633 0.4665435 0.44384712 4286417823
2.6447923 0.51534945 0.43999669 4286548629
2.7388501 0.78685999 0.41762364 4287731368
2.7638626 0.79403079 0.43974146 4287205544
2.7387285 0.82312006 0.41735998 4287337640
2.7572753 0.81960076 0.43851051 4287206827
2.7385771 0.86844492 0.41703033 4287403433
2.7756085 0.87090826 0.44111168 4287271847
2.7598994 0.92537212 0.42455101 4287534504
2.7567415 0.96999592 0.41914356 4287469737
2.8092709 0.97440511 0.4458254 4287468972
2.7755551 1.0271829 0.42165658 4287731624
2.8330934 1.0294834 0.44928348 4287272359
2.7813339 1.0844671 0.40372634 4287535016
2.8133941 1.0782806 0.42714289 4287272103
2.677644 1.1423656 0.40578899 4287271083
2.7136629 1.1395289 0.41135916 4287074719
2.7750089 1.140377 0.42077896 4287205536
2.8066986 1.1314974 0.41646999 4287600292
2.8527277 1.1309282 0.43284905 4287338154
2.683547 1.1715671 0.40650153 4286683832
2.7376046 1.1676954 0.43300453 4286812074
2.8396776 1.1541939 0.4495019 4287009192
2.7254174 1.2167143 0.41869777 4288332499
2.7743773 1.2384027 0.43843904 4286353588
2.7252262 1.2707957 0.4122543 4285494665
2.7937613 1.2747655 0.44130969 4285889935
2.780654 1.3057051 0.43899459 4283721852
2.9631329 -0.36538923 0.47960961 4284968570
2.9891777 -0.33426759 0.4687345 4285165942
3.0266762 -0.32350239 0.48951012 4285493367
2.9965253 -0.29062113 0.46461511 4285821565
3.0114677 -0.27224383 0.46679381 4285297014
3.0715249 -0.2779091 0.48967016 4285296758
3.071316 -0.22733279 0.46560147 4285428861
3.1583083 -0.21317293 0.48902491 4285363841
3.0711298 -0.17659223 0.45501816 4285693320
3.1992228 -0.18443732 0.4951362 4285559938
3.2161596 -0.16423364 0.49760994 4285232517
3.0409136 -0.11439433 0.45013985 4285693070
3.0559874 -0.135241 0.45250443 4285824141
3.1339841 -0.11820985 0.48463452 4285627273
3.1500602 -0.13972014 0.48725742 4285298310
2.882807 0.073771887 0.46371028 4285758858
2.9593546 0.075444601 0.49559164 4285562254
2.9381397 0.12336469 0.46254507 4285890454
2.9851735 0.12524688 0.48639321 4285890447
2.979965 0.17411532 0.45892289 4285955983
3.025001 0.17665985 0.48587263 4285890445
2.9898 0.22409077 0.46010095 4286022293
3.0348339 0.227413 0.48711121 4285956757
2.9946346 0.27396515 0.46050897 4286219666
3.0396659 0.27799863 0.48754719 4286154133
2.9944353 0.33339524 0.46007675 4286154139
3.0095339 0.30512473 0.46259469 4286284953
3.0545304 0.31970879 0.48965555 4286351000
2.9846046 0.38166976 0.4582355 4286285723
3.0593607 0.37077397 0.49008802 4286089111
2.9651253 0.42852411 0.46478108 4286548633
3.0316961 0.41773218 0.48532516 4286351772
2.9369519 0.48294646 0.46965751 4286417562
2.951046 0.45588657 0.47210515 4286613918
2.6838365 0.5229795 0.48208234 4286876059
2.894738 0.54330385 0.46246591 4286745506
2.9158275 0.51816857 0.46602497 4286549665
2.7844732 0.82461435 0.46745536 4287533993
2.8017738 0.84209329 0.48263714 4287533987
2.7886906 0.85658616 0.46178767 4287205544
2.8179812 0.87796509 0.4790028 4287402665
2.8294973 0.92148894 0.47569096 4287468709
2.8403382 0.96628451 0.46969455 4287141278
2.8710003 0.97660679 0.48747823 4287337384
2.8731508 1.0249035 0.47479245 4287468965
2.8796318 1.0747674 0.46284935 4287468458
2.9209461 1.0900819 0.48235351 4287008940
2.927794 1.1313351 0.47356722 4287337383
2.7875781 1.188879 0.45937103 4286352545
2.8131428 1.1716163 0.46376526 4286614936
2.8796823 1.1607533 0.46543074 4286877857
2.9347057 1.1631975 0.48416531 4286877599
2.793977 1.2193893 0.46023726 4286418085
2.8795056 1.227704 0.49358022 4286023065
2.9135644 1.2130382 0.49960354 4286548632
2.839267 1.2859635 0.46736965 4284903814
2.8790348 1.2655636 0.48694283 4285496717
2.9968879 -0.36942828 0.52468592 4285034357
3.04182 -0.35524708 0.51228321 4285231473
3.1028955 -0.36253223 0.54308194 4285165929
3.1027937 -0.34217051 0.52239931 4285428098
3.1827769 -0.33035132 0.53570527 4285559418
3.2327375 -0.31441271 0.54395932 4285427830
3.1345036 -0.26311865 0.50643468 4285363320
3.2676871 -0.29638147 0.54968697 4285231223
3.1664519 -0.24502751 0.51144791 4285232254
3.2324164 -0.22908431 0.52194333 4285560188
3.2503538 -0.20895556 0.52469093 4285494143
3.2842982 -0.18958692 0.53001636 4285625213
3.3022337 -0.16887605 0.53275967 4285232002
3.2671094 -0.13457607 0.52688318 4285298051
3.0404053 0.077214748 0.52926862 4285758860
3.0326691 0.13711481 0.50744683 4285956238
3.0702753 0.11848794 0.53418887 4285759115
3.0775392 0.17963409 0.51467043 4286153106
3.1331482 0.16205417 0.54483533 4285759118
3.0849035 0.22082046 0.51562643 4286153112
3.0847325 0.27183381 0.51525533 4286022548
3.1005609 0.32444236 0.51755124 4286088082
3.1324205 0.36907861 0.52258331 4286154135
3.1162496 0.41874355 0.51954377 4286089370
3.0740514 0.47436094 0.5121085 4286482586
2.7038884 0.52702171 0.52143717 4286745245
3.0613844 0.52314413 0.50966126 4286549153
3.1478601 0.54808074 0.5448122 4286745243
3.1719592 0.52068704 0.54918796 4286416795
3.0687461 0.56507468 0.51061171 4286745753
3.1477902 0.56890947 0.54466069 4286746008
3.1637154 0.59265697 0.54727238 4286745756
2.813858 0.82714164 0.50348133 4287074221
2.8407772 0.8537305 0.50816524 4287402151
2.8737388 0.87297809 0.52357495 4287336613
2.9216888 0.89710039 0.54184419 4287402921
2.8802249 0.92268962 0.5148291 4287402920
2.9495711 0.93483341 0.54681337 4287140519
2.931906 0.97779024 0.5335657 4287402917
2.9352138 1.024163 0.5111475 4287337127
2.9679174 1.0290214 0.54307693 4287271331
2.9490821 1.0614655 0.50679648 4287271848
2.9775405 1.081447 0.52152717 4287336869
2.9918785 1.1295795 0.52039492 4287008417
3.0069635 1.11203 0.53645384 4287205542
2.9486248 1.1981448 0.50580245 4287532440
2.9844027 1.1729537 0.52210879 4286745756
2.9915786 1.2254246 0.53291959 4286023315
2.9437332 1.2743651 0.52395302 4284903811
2.9914794 1.2551395 0.53270346 4285628809
3.0569642 -0.37698779 0.55541211 4285099887
3.1190431 -0.38479811 0.58730918 4285034357
3.1828814 -0.3512384 0.55692136 4285426803
3.285059 -0.38454717 0.59665334 4285558393
3.3028901 -0.34323019 0.57774556 4285230971
3.3753257 -0.3175723 0.59017551 4285165433
3.2846248 -0.27628863 0.55238664 4285297014
3.302562 -0.25605303 0.55525261 4285494143
3.3936498 -0.26336917 0.59300059 4285165178
3.4127359 -0.2874915 0.59648246 4285165180
3.3294666 -0.2252236 0.55954832 4285297275
3.3845317 -0.22909497 0.59118509 4284969340
3.3383236 -0.18175948 0.56073874 4285363583
3.3753777 -0.1837814 0.58928943 4285428860
3.2841156 -0.12428377 0.55128121 4285692287
3.3322093 -0.14089191 0.57416868 4285691525
3.0854483 0.078280449 0.55752021 4285758082
3.1174548 0.089392848 0.58386052 4285625983
3.1226749 0.11697941 0.57089823 4285758343
3.1653264 0.13240336 0.59253627 4285758346
3.1761308 0.17807405 0.56628323 4285956236
3.2150877 0.19789463 0.58013386 4286152338
3.1809435 0.22737037 0.55271333 4285955982
3.2229815 0.23035268 0.58134282 4286088076
3.1808026 0.26945096 0.55240732 4286218896
3.2308388 0.2736021 0.58247358 4286153108
3.1806269 0.32205185 0.55202478 4286284948
3.2306955 0.3163442 0.58216262 4286218125
3.2258277 0.36908147 0.56674302 4286218899
3.2654784 0.3844133 0.58799005 4286219151
3.2143049 0.42102429 0.55722165 4286154136
3.2653339 0.42761835 0.58767593 4286416531
3.1886492 0.46523103 0.55246258 4286285719
3.2361579 0.47744405 0.58207476 4286284437
3.2389777 0.53151828 0.58222353 4286482842
3.2298369 0.57279664 0.58029747 4286811547
3.2477241 0.60813779 0.58329195 4286679963
3.0226843 0.91775191 0.580639 4287008931
3.0750129 0.97410071 0.59040809 4286942623
3.067349 1.0224383 0.58860248 4287073954
2.9921751 1.0571834 0.5539757 4286877858
3.0070958 1.082311 0.556602 4287272098
3.0521569 1.078204 0.58528864 4286877596
3.0219648 1.1277021 0.56912953 4286876568
3.0118127 1.1705377 0.56357384 4286417306
3.0666862 1.2153387 0.57703489 4286219414
3.1136217 1.244095 0.59610301 4285627791
3.0363958 1.2940232 0.56068021 4285099396
3.0815516 1.2517358 0.5694145 4285300877
3.1134496 1.2851787 0.5751639 4285037203
3.081897 1.3029807 0.57930011 4284771458
3.4322007 -0.40228385 0.64604992 4285231223
3.3940618 -0.3753854 0.6162768 4285296248
3.5100641 -0.36554164 0.63715953 4285492855
3.5720267 -0.34865865 0.64823669 4285427582
3.490742 -0.27116895 0.63304102 4285231738
3.5508559 -0.2995691 0.64408618 4285100668
3.431556 -0.22095066 0.62201786 4285690754
3.450623 -0.23358254 0.63696152 4285428095
3.4250863 -0.17516205 0.63189745 4285756543
3.4122438 -0.12939577 0.61791998 4285822590
3.4502976 -0.13084106 0.64763379 4285691002
3.1334929 0.089924343 0.6075992 4285954696
3.2491264 0.19998258 0.60777509 4286216844
3.2774026 0.22332369 0.62015766 4285758346
3.3098774 0.280108 0.61861533 4286087567
3.3549528 0.27274448 0.64931232 4285693580
3.3187311 0.32470441 0.61997634 4285890193
3.318584 0.36861068 0.61965716 4286087051
3.3154187 0.42318487 0.62972718 4286284947
3.2822218 0.47335294 0.61215383 4286417053
3.3002543 0.47602358 0.63736415 4286613651
3.2868433 0.51757395 0.62365121 4286810776
3.2938912 0.57314157 0.61367518 4286746014
3.3269558 0.56787264 0.64193094 4287139228
3.2997439 0.61778575 0.61447418 4287007643
3.3358059 0.61348164 0.64334422 4287073695
3.1305768 0.97084844 0.62193888 4286811806
3.1784031 1.0275153 0.6311512 4287139996
3.1382236 1.0770875 0.62277019 4286746527
3.1623096 1.0538256 0.62775165 4287008678
3.0980144 1.1353804 0.61432612 4287007384
3.1141043 1.1102346 0.61771703 4286680472
3.0719013 1.1666344 0.60888559 4286417053
3.0977397 1.2174253 0.61372936 4285563029
3.14552 1.277539 0.60206425 4284380800
3.1780565 1.2802526 0.62941331 4285363338
3.071723 1.3227359 0.61459357 4282994275
3.1453805 1.3191963 0.60176128 4284051323
3.1694074 1.3187436 0.61694992 4284575099
3.2114165 1.3254154 0.63580179 4284903552
3.4133363 -0.42220369 0.68781137 4283717965
3.5103726 -0.43481317 0.68412268 4284770672
3.572341 -0.41915441 0.69602972 4285032552
3.5311947 -0.39099336 0.66450691 4285231221
