# .PCD v0.7 - Point Cloud Data file format
VERSION 0.7
FIELDS x y z rgb
SIZE 4 4 4 4
TYPE F F F U
COUNT 1 1 1 1
WIDTH 1143
HEIGHT 1
VIEWPOINT 0 0 0 1 0 0 0
POINTS 1143
DATA ascii
3.26368 0.72177845 1.0626323 4287276731
3.3799441 0.70218891 1.0768223 4288067790
3.4062951 0.71353841 1.0683489 4287738823
3.477252 0.73539156 1.0833845 4287541445
3.537286 0.72422445 1.0788206 4287672516
3.6291947 0.70586157 1.0649629 4287345363
3.6973057 0.71917629 1.0788949 4287213510
3.7436795 0.72007263 1.0607471 4287083732
3.7770908 0.72873551 1.065045 4286951625
3.828594 0.7357446 1.0686677 4286952397
3.8743548 0.73191643 1.0594884 4287148754
3.9269528 0.72527075 1.0527705 4286886351
3.9870391 0.72421998 1.0910681 4284844197
4.0266204 0.72257501 1.0629512 4284714922
4.0561552 0.71984589 1.064443 4284385445
4.1749034 0.71680331 1.0668652 4285044147
4.2043223 0.7328493 1.0809283 4284122790
4.2738976 0.71932554 1.0714362 4283863216
4.3732381 0.71043074 1.0682044 4283994296
4.4016328 0.73457545 1.0600359 4285115849
2.3915734 0.78971481 1.0744255 4291418350
2.4214661 0.7805075 1.0860068 4291748332
2.5336304 0.7948606 1.0911657 4290893047
2.5670259 0.79449493 1.0866123 4291156982
2.6045222 0.78197193 1.0991975 4290234859
2.7118793 0.77124822 1.0676607 4290037469
2.8298872 0.77685148 1.0724806 4290234333
2.872016 0.76665717 1.0665219 4289905108
2.9055214 0.75059021 1.0542921 4289115077
3.0990648 0.78447312 1.0810325 4289315030
3.1231399 0.78162968 1.0807508 4287802304
3.1915607 0.78014433 1.0831493 4287605180
3.2410834 0.77635002 1.073608 4288329417
3.2748506 0.78745168 1.084525 4287210165
3.3121498 0.76842117 1.0770454 4287671745
3.3716075 0.76946604 1.072365 4287869636
3.4280961 0.77051908 1.0677642 4287868867
3.5786035 0.77984238 1.0910877 4287803331
3.7043896 0.78371912 1.0584077 4287079868
3.7776287 0.78387994 1.0864611 4287149784
3.8190434 0.77001715 1.0714759 4286821071
3.8788054 0.76819533 1.0671883 4286622664
3.9102421 0.77859163 1.0692222 4286755274
3.9559908 0.76348656 1.0518956 4286623953
4.0768566 0.7719087 1.0746636 4285175468
4.1218004 0.76824546 1.0760546 4284319653
4.2288904 0.78396022 1.0506765 4283534764
4.2693782 0.77538675 1.0821638 4285637056
4.3130398 0.75052941 1.0810597 4283863729
4.3805137 0.77332091 1.0770994 4283862960
2.3781464 0.83343273 1.0745488 4293720057
2.4412758 0.8148973 1.0555723 4294048762
2.4879732 0.81668413 1.0898581 4291157498
2.5085514 0.82183456 1.0740908 4291945205
2.5688176 0.83056945 1.0723423 4292273133
2.6213498 0.82226408 1.0796897 4290958058
2.6766369 0.8358779 1.0796962 4290826724
2.7286863 0.81183821 1.0634449 4289839311
2.75091 0.81418955 1.0560335 4291816190
2.816169 0.82488233 1.0740215 4289840598
2.8618956 0.83408678 1.0781856 4289248205
2.9315269 0.83569294 1.0762697 4287933116
2.9859066 0.83696592 1.078529 4288328133
3.0282269 0.83775014 1.0749699 4288131013
3.0898585 0.81856787 1.075527 4287999172
3.1106799 0.82905865 1.0755904 4288131777
3.1735725 0.81097955 1.0747727 4287406774
3.2312126 0.82888746 1.059058 4287737024
3.2665401 0.83510005 1.0857615 4286224043
3.3308468 0.8238138 1.0762002 4286551978
3.3647025 0.83224159 1.0645084 4287407800
3.4869139 0.8180148 1.0627453 4287803589
3.5269873 0.80388331 1.0751151 4287803587
3.6098354 0.84614408 1.0762869 4287541444
3.7142696 0.82373393 1.0584812 4286620090
3.7871997 0.82888353 1.0852017 4287083220
3.825562 0.82084715 1.0675015 4286823128
3.8835709 0.81651592 1.0739673 4286755020
3.9188049 0.8222903 1.0749197 4286624205
3.9654646 0.82154679 1.0645013 4286491850
4.042716 0.84444529 1.0547513 4286627050
4.0911431 0.81444669 1.0597998 4285833402
4.18606 0.82277471 1.0927618 4284188836
4.2516236 0.83063573 1.0820626 4284123557
4.3269439 0.84307957 1.0753484 4283993515
4.4288573 0.80198473 1.0923495 4285572285
2.3975401 0.86065239 1.0829433 4292604154
2.4927175 0.85223317 1.0824316 4291222008
2.5273051 0.85641479 1.055627 4294639614
2.6348436 0.878061 1.0729828 4291482594
2.6645317 0.87586474 1.074921 4290496728
2.7174456 0.86469585 1.0865904 4289443280
2.8890786 0.87652254 1.0806882 4289181901
2.9296441 0.87219083 1.0726796 4288722636
2.9684637 0.8572818 1.0806595 4290170863
3.0266237 0.87641174 1.060853 4287275187
3.0727882 0.85625535 1.0682158 4286683568
3.1364288 0.86029798 1.0759004 4286683824
3.1652 0.87675166 1.0702705 4287407288
3.2106946 0.8677448 1.071956 4287340470
3.2868919 0.87662637 1.0856788 4286749104
3.3478346 0.87355012 1.0610541 4288461521
3.383323 0.88575542 1.0709476 4287013560
3.4034481 0.86444509 1.0866046 4286749614
3.4622316 0.88894933 1.0688004 4286948281
3.66256 0.87868202 1.0642966 4287083210
3.7125895 0.88702708 1.051405 4287215313
3.7579093 0.87845314 1.0766248 4286952144
3.8347487 0.87204945 1.0800055 4286688709
3.8707275 0.87506753 1.074128 4286886351
3.916378 0.88223153 1.0794786 4286621894
3.9669292 0.87174755 1.0733018 4286096837
4.0299382 0.87189633 1.0698162 4286360265
4.0888991 0.88139522 1.0754788 4285109164
4.1652803 0.87192994 1.0885564 4284253856
4.2445612 0.88016522 1.0873256 4284058020
4.2710924 0.87255806 1.0815265 4284847537
4.3261967 0.88903701 1.0801278 4283927979
4.3720865 0.87614882 1.0671014 4284190639
4.4117684 0.88822871 1.0509781 4283470000
2.5813801 0.91776353 1.0571346 4291217622
2.6426213 0.91717768 1.0805955 4290494411
2.6602316 0.92169517 1.0578623 4290231235
2.7289829 0.91832501 1.0561244 4288585130
2.766547 0.91587639 1.087677 4289836743
2.830914 0.93321323 1.0810578 4288322729
2.874517 0.93034756 1.0811713 4288982460
2.9198291 0.93262011 1.0647097 4287404719
2.9820104 0.92009956 1.0709494 4286944933
3.0383554 0.92070222 1.0638876 4287012019
3.0953341 0.92636091 1.0698488 4287801016
3.1277988 0.93896633 1.0520041 4286353828
3.1598907 0.90591377 1.0500907 4289380050
3.202451 0.92507827 1.0828094 4287144116
3.2756374 0.92540181 1.061772 4287605440
3.3292813 0.92666852 1.0690925 4287605697
3.3589997 0.91663706 1.0749296 4287144888
3.4108765 0.90702415 1.0652933 4287803589
3.4609902 0.93309736 1.0717334 4286882488
3.5686064 0.92304212 1.0561806 4287870927
3.7352314 0.93091536 1.0627971 4287345614
3.8294277 0.9343282 1.0605068 4286755792
3.9251683 0.9327032 1.0697953 4286886101
3.9886005 0.93668848 1.0738262 4286755025
4.0279217 0.90284872 1.0915993 4286358201
4.0891027 0.92797333 1.0808681 4285174700
4.1855278 0.9127571 1.0742071 4284715693
4.2344985 0.93374926 1.0800555 4284188837
4.2825623 0.92889977 1.0759336 4283992745
4.3792334 0.92282188 1.0702014 4284125618
4.4257731 0.91691726 1.0542524 4283272621
2.7276385 0.95994556 1.0749849 4290033602
2.7791796 0.97194362 1.0650902 4289571768
2.8101759 0.99730182 1.0700557 4289769402
2.9242377 0.96952045 1.0708129 4286809494
2.9921818 0.96005708 1.0622023 4287734458
3.0270104 0.96178263 1.093206 4286942621
3.0750849 0.98624915 1.0696329 4287012275
3.1249959 0.97272861 1.0795002 4288064444
3.1728315 0.9859758 1.0788641 4286223526
3.2096767 0.96701056 1.0704916 4287340978
3.2723963 0.97960448 1.0750649 4288657102
3.3228297 0.97785848 1.0813818 4287539137
3.3721547 0.98328114 1.0725039 4288197063
3.4210346 0.96810424 1.0812192 4286486960
3.4615905 0.98043567 1.069139 4287935434
3.5460575 0.96015286 1.0683759 4287605698
3.579638 0.98762858 1.070905 4287343811
3.6290746 0.97455084 1.0683351 4287409090
3.6803238 0.97322136 1.0565143 4286881719
3.7249825 0.9784885 1.0511715 4287346383
3.7690208 0.99028099 1.0703312 4287015874
3.8241687 0.97696871 1.0669962 4287083728
3.8971536 0.99460459 1.0688186 4287083470
3.971745 0.9864893 1.0968028 4287085022
4.0287366 0.99348909 1.0906901 4286160575
4.07618 0.9751159 1.0654576 4286230219
4.1278281 0.98472458 1.0865085 4284253859
4.1678548 0.96865124 1.0814734 4284122788
4.220757 0.97502953 1.0640144 4284058538
4.2848668 0.96758968 1.0656284 4284255405
4.3312178 0.95162177 1.0683446 4283796656
4.4198103 0.97389799 1.0531331 4283666354
2.9693224 1.0044659 1.0780436 4286612626
3.0352705 1.0156932 1.0796039 4286482073
3.1349409 1.0383493 1.0915458 4287732915
3.1587725 1.0242449 1.0732474 4288656321
3.2858601 1.0309818 1.0774618 4288262599
3.3359053 1.0421889 1.0535283 4288527060
3.3773704 1.020262 1.0741558 4288789975
3.4365418 1.0220569 1.0782167 4287999940
3.4920766 1.0184691 1.095946 4288330710
3.5284042 1.0344552 1.0949419 4288199124
3.5810075 1.0277938 1.0730181 4286948795
3.6248748 1.0444349 1.0889099 4288132817
3.671824 1.0236214 1.0714365 4286685624
3.7031643 1.0271543 1.097243 4285172381
3.7782257 1.0354582 1.0835489 4286226102
3.8969426 1.0454984 1.0929151 4287281105
3.9735878 1.0359173 1.0800785 4286359490
4.0243869 1.0287451 1.0665783 4286163915
4.0854902 1.0247649 1.0848176 4284516257
4.1289625 1.0418681 1.074734 4285374655
4.1634083 1.0160657 1.0539147 4286364138
3.1386528 1.0620663 1.0636319 4289182407
3.1906834 1.0879686 1.0580156 4288918724
3.2732313 1.0806174 1.0875756 4288919496
3.3344231 1.0817827 1.0620495 4288593887
3.3802719 1.0625755 1.0819082 4288200926
3.4341047 1.0699999 1.0720271 4288329681
3.4798107 1.0629216 1.0713154 4288066762
3.5400715 1.0611413 1.0845903 4287672262
3.5930548 1.081632 1.078199 4287937495
3.6304462 1.0711135 1.0781994 4286093746
3.6880329 1.0738654 1.0637245 4286225843
3.7316136 1.0522072 1.0707719 4286226358
3.7892802 1.0892911 1.0505594 4287281106
3.8366272 1.0800608 1.0665469 4286556098
3.8814616 1.0827305 1.0725052 4284647071
3.9166048 1.0662093 1.0694889 4285898425
3.9757833 1.0756174 1.0837641 4286294729
4.0297666 1.0749677 1.0794739 4286097866
4.1214352 1.0768967 1.0970831 4286358203
4.1587696 1.0699539 1.0763386 4286229962
4.2358913 1.0765277 1.0632879 4286166232
3.2905312 1.1287262 1.0555964 4288525251
3.3068666 1.1247624 1.0569515 4288857060
3.3784933 1.133575 1.0793511 4288721865
3.4050379 1.1248984 1.0654165 4288790492
3.4651511 1.1219047 1.0617349 4288593371
3.516783 1.1465107 1.0571139 4287539386
3.580466 1.126186 1.0827559 4287672260
3.620497 1.1019313 1.0806565 4287341755
3.6781483 1.1201849 1.0775356 4286817212
3.7272871 1.1257296 1.070401 4285237923
3.7836962 1.1039858 1.0596819 4284975782
3.8871014 1.1286217 1.0669229 4284581795
3.9374485 1.1107081 1.0737973 4284582823
3.9756365 1.1258405 1.0671005 4287086315
4.0880823 1.1251724 1.0842952 4286227646
4.1236973 1.1203463 1.076704 4285636799
4.199564 1.1165551 1.0857372 4284057510
4.2444429 1.1471293 1.0643944 4286692061
4.2738886 1.1273181 1.0747228 4286692061
4.3048987 1.1439016 1.0542421 4285572800
3.3733964 1.1580917 1.0545634 4289118945
3.5572584 1.1746579 1.0638347 4288396769
3.7014589 1.1742055 1.0815989 4288068567
3.7655091 1.1695086 1.0759882 4287675092
3.8198819 1.1523703 1.0703425 4285041578
3.8686604 1.1648387 1.057657 4284583593
3.9338167 1.1712742 1.0692995 4287479259
3.9646873 1.1802483 1.0704113 4284582564
4.0188289 1.1785814 1.0620185 4285242039
4.0808821 1.180681 1.0647116 4284254628
4.1746364 1.1752715 1.0806165 4283992485
4.2264013 1.1748238 1.0724018 4284254887
3.6552629 1.2306545 1.0662093 4288331739
3.720818 1.216805 1.0850296 4288134362
3.8422432 1.205812 1.083039 4287806680
3.8529246 1.2473974 1.0961195 4287675096
3.9207237 1.2200935 1.0824023 4285701046
3.9704051 1.2356246 1.0784225 4284845221
4.0718699 1.2225105 1.0575049 4284451234
4.1634412 1.2355086 1.0566453 4284451750
4.2247448 1.2381848 1.0542955 4284385442
3.7157295 1.2748092 1.0576559 4288068821
3.8048642 1.2811638 1.0815365 4288331739
3.9782794 1.2692491 1.0560461 4286426315
4.0263829 1.2915967 1.0735193 4284976300
4.0632892 1.268774 1.0763311 4284713637
4.1656275 1.2786312 1.0741268 4284517286
4.2187738 1.2942572 1.0813442 4284910757
4.2649951 1.2781124 1.0641162 4284452005
3.8807948 1.3312359 1.0631818 4287872215
3.9784963 1.3393793 1.0883763 4288003544
4.0168314 1.3126776 1.0870467 4287938009
4.0724449 1.319958 1.0786343 4285041830
4.1627808 1.3187443 1.0740703 4284517543
4.2224879 1.3368785 1.0828309 4284582821
4.3146706 1.310087 1.0570886 4284255398
4.0821724 1.3793709 1.0802298 4285173159
4.1339068 1.3579941 1.0719384 4284845224
4.1625733 1.3866136 1.0528964 4284715181
4.2289348 1.3773545 1.0566818 4284386728
4.2832003 1.3535901 1.0691383 4284320677
4.0840096 1.422033 1.0732069 4284976293
4.1062598 1.4496043 1.0565885 4285172392
4.1881495 1.4526362 1.0597175 4284384929
4.2706194 1.5482159 1.0606806 4287148741
4.355845 1.5786839 1.0520411 4287279555
4.4737439 1.5746541 1.0552422 4284319640
4.5561719 1.636493 1.0737777 4284712081
4.6283312 1.659557 1.0584091 4284711829
3.0480649 -0.80645651 1.1206512 4287601304
3.1244802 -0.80614299 1.147385 4287536022
3.1096432 -0.7934857 1.1201315 4287533202
3.156286 -0.7847119 1.135411 4287336850
3.2488995 -0.77789044 1.133685 4286744972
3.3291943 -0.77739555 1.1263928 4286548375
3.3603125 -0.76297444 1.1296456 4287337630
3.3813734 -0.71291429 1.1271617 4285164133
3.5430675 -0.70724046 1.1112155 4285953658
3.3159323 -0.66227645 1.1186717 4285821818
3.3681576 -0.66452694 1.1423624 4285294685
3.4309089 -0.67127478 1.1088582 4285887864
3.4981637 -0.67502099 1.1151572 4286084734
3.5204756 -0.66328424 1.1025763 4285690231
3.6125503 -0.6680097 1.1047587 4285953399
3.1237066 -0.60374451 1.1207455 4285228892
3.2743325 -0.63250208 1.1311872 4285493107
3.3232 -0.62272388 1.1189948 4285492589
3.3744853 -0.61536044 1.1449846 4284966239
3.4205382 -0.63031 1.1051008 4285952890
3.473186 -0.62945497 1.1074222 4285098343
3.5360901 -0.60685366 1.1299496 4284506456
2.9106519 -0.55630255 1.1036503 4284966504
3.0666595 -0.56567013 1.1411462 4284637272
3.1150615 -0.5674938 1.1202629 4284440664
3.2862291 -0.59640181 1.1414596 4285558641
3.3262255 -0.58322626 1.1241615 4285295467
3.3644085 -0.57637203 1.1192145 4285097831
3.4265547 -0.58723301 1.1203146 4284440666
3.4658058 -0.55877393 1.1314512 4284243034
3.5332212 -0.57603544 1.1150893 4284112729
3.5565155 -0.58626729 1.1353537 4284244057
2.8598447 -0.5257808 1.1080576 4284046932
2.9666083 -0.53244936 1.1260566 4284506460
3.0618362 -0.53712839 1.1282034 4284375133
3.1499736 -0.53772998 1.1002816 4284046162
3.1711075 -0.52424192 1.1278006 4284375127
3.2141418 -0.51360238 1.1154648 4284309592
3.2599137 -0.51266879 1.1123379 4284309334
3.3267853 -0.52361077 1.1193898 4285492331
3.3865154 -0.52258873 1.1316288 4285032806
3.4183803 -0.5118649 1.1369739 4285031521
3.4751093 -0.51553452 1.1196084 4285032810
3.5126874 -0.53061467 1.119616 4284309601
3.1730237 -0.46735191 1.1332653 4284375132
3.2173073 -0.47241312 1.1202261 4284309592
3.2693591 -0.47681254 1.1153949 4284704097
3.3319206 -0.47068444 1.1142914 4284901219
3.3687379 -0.47884187 1.1239867 4284835683
3.4383111 -0.48144096 1.1344143 4285558384
3.5285993 -0.47548324 1.1249564 4285888119
3.5559039 -0.47160292 1.1031777 4285822841
2.4983516 -0.42641619 1.1313738 4284570966
2.5245817 -0.4321844 1.1062289 4284505434
3.1414998 -0.41715777 1.1271532 4284375387
3.1873553 -0.42773968 1.1208971 4284375136
3.2135606 -0.41767907 1.1172501 4284375391
3.2780435 -0.42159915 1.1166729 4285689963
3.3220701 -0.43230414 1.1160446 4285493615
3.3706408 -0.41696441 1.1306692 4285295723
3.4095504 -0.44659618 1.1162683 4284900709
3.564193 -0.41929138 1.137897 4286085244
3.6006894 -0.42532152 1.1265155 4285888893
1.8314443 -0.35649565 1.1148646 4283979862
2.0021114 -0.37710536 1.1420583 4284111701
3.1308479 -0.37219647 1.1245096 4284375135
3.1768639 -0.35688829 1.1470277 4284835171
3.2194407 -0.36356893 1.1207662 4284901475
3.2720537 -0.35448903 1.100027 4285163883
3.3294883 -0.37478733 1.1204275 4285756021
3.3845353 -0.36552793 1.1029406 4285229935
3.4458704 -0.38064998 1.1446148 4286085760
3.4795804 -0.38065338 1.133383 4286151037
3.5800798 -0.37756974 1.1295128 4286085504
1.4644784 -0.3047266 1.1440923 4284967026
1.6321801 -0.32826847 1.1208904 4284374108
1.7851062 -0.34760922 1.1471176 4283979609
3.0997779 -0.31176817 1.1493603 4284374876
3.1817832 -0.31909314 1.1285026 4285098853
3.2226875 -0.32272857 1.1296039 4284835430
3.2822754 -0.31439596 1.1295201 4285624691
3.328542 -0.32745585 1.1196606 4285887606
3.4475887 -0.32159406 1.1477268 4286348420
3.4764252 -0.32088837 1.1297848 4286283141
3.5627851 -0.33183742 1.1171703 4286086277
3.0776544 -0.2566666 1.1424375 4284572262
3.1514874 -0.25424564 1.1351522 4284441445
3.2181592 -0.27943563 1.1124548 4284638819
3.276545 -0.28088546 1.1251346 4285953914
3.3213289 -0.27986148 1.1128143 4285756791
3.3828187 -0.26792684 1.1190917 4285427055
3.493645 -0.27831382 1.1435109 4286283144
3.5380852 -0.29527313 1.1248801 4286086534
3.0792665 -0.21241537 1.1453508 4284573030
3.1789176 -0.21373475 1.1196907 4284639336
3.2134578 -0.218308 1.1291614 4284704872
3.2806287 -0.23238093 1.1316218 4286216830
3.3200345 -0.22422084 1.1169536 4286019711
3.3758376 -0.2344946 1.1030148 4286282369
3.4081655 -0.2094866 1.123481 4285624944
3.4725657 -0.23580992 1.1189574 4286480261
3.1369884 -0.15556239 1.1478379 4284639338
3.194284 -0.15410174 1.1315843 4284704877
3.2251902 -0.16198564 1.1301073 4284836712
3.2766171 -0.17287865 1.1167719 4286217091
3.3134391 -0.18365771 1.1196218 4286019454
3.4343634 -0.17555316 1.1256632 4286283397
3.1477957 -0.10294335 1.1378707 4284902002
3.1862578 -0.10705267 1.1308008 4286085239
3.2058809 -0.12496641 1.1224451 4285954169
3.2795422 -0.13191807 1.1132873 4286152068
3.3713756 -0.11646773 1.1343751 4285954943
3.4278147 -0.11961791 1.1145656 4285954943
3.4711161 -0.12499991 1.1100945 4286151295
3.5174356 -0.10871987 1.1162329 4285165421
3.638468 -0.11907487 1.1060618 4285034098
3.1248484 -0.056424577 1.1274924 4284836457
3.1962535 -0.094321348 1.1019564 4284968302
3.219022 -0.068490133 1.1349258 4286217343
3.277005 -0.07801456 1.1218951 4286217860
3.3281403 -0.064648829 1.113966 4286612362
3.3723524 -0.069496267 1.1182021 4286875282
3.4043608 -0.074290693 1.1318915 4285231730
3.4894905 -0.058623511 1.1213031 4285953913
3.5101562 -0.064133123 1.1079311 4285231215
3.5625734 -0.098571144 1.1169772 4285099887
3.0725121 -0.024310719 1.1406693 4284901227
3.1044605 -0.0052947048 1.1179177 4284704361
3.2292047 -0.009637855 1.1357789 4286612618
3.2601624 -0.024630964 1.1266065 4286547338
3.3350487 -0.022913303 1.1240721 4287007118
3.3605092 -0.031253517 1.12111 4287007374
3.4323988 -0.023528375 1.1294426 4285298037
3.4660769 -0.024551813 1.1075729 4285625976
3.0951078 0.037881184 1.1236458 4284902257
3.1880498 0.03171391 1.1271813 4286415234
3.2319586 0.022519253 1.1398718 4286810512
3.2669432 0.022430334 1.1305914 4286941841
3.3346393 0.028830193 1.1168478 4287203989
3.3693051 0.013895653 1.1135697 4287138968
3.4211273 0.039804105 1.1266855 4286020480
3.1236696 0.07909964 1.1229351 4285823356
3.1752172 0.076380387 1.1469426 4286217093
3.2742934 0.073866189 1.1221389 4287401363
3.3209643 0.068162002 1.1178322 4287335831
3.3757095 0.068078399 1.1106652 4287533987
3.4161448 0.086588308 1.122157 4286283394
2.732182 0.1310817 1.1482693 4285297529
3.0991044 0.13498922 1.1428015 4285034357
3.135118 0.12351263 1.1226032 4284969077
3.1596313 0.1059218 1.1173562 4286613128
3.2190971 0.14123604 1.1182954 4286941841
3.2818923 0.13242792 1.1082207 4287665053
3.3273549 0.13595079 1.1247246 4287599771
3.3859169 0.12603451 1.1153311 4286744463
3.4512644 0.13538155 1.1486974 4285956224
2.7351243 0.18820882 1.1468755 4285232507
2.7858849 0.18010105 1.1479415 4285297529
3.0970628 0.19896062 1.139027 4285495678
3.1405661 0.19227226 1.124994 4285364093
3.1716933 0.16746026 1.1220412 4285100919
3.2332478 0.1806508 1.1123251 4287073684
3.2663505 0.17347272 1.1077477 4287731360
3.3292365 0.17712045 1.1247022 4287862944
3.3939459 0.19098693 1.1316357 4287006864
3.4161661 0.19155483 1.1296964 4286744460
3.4501576 0.17136414 1.1468656 4286087297
2.7711716 0.22262587 1.1399895 4285232250
2.8414752 0.24374337 1.1399908 4285298564
2.8864555 0.23282479 1.1444143 4285363842
2.9320862 0.24473718 1.1404791 4285758595
2.9924443 0.24219118 1.1367189 4286021512
3.0450084 0.2290659 1.1406444 4285561216
3.0985219 0.23670213 1.1243166 4285561987
3.1411061 0.2418327 1.1077882 4285561985
3.2498524 0.24998826 1.1418803 4286482314
3.2893872 0.22649316 1.1279858 4287008147
3.3320522 0.23287299 1.1259543 4287139476
3.4353831 0.24631524 1.1341059 4287204757
2.7321696 0.28370699 1.137208 4285495683
2.7888663 0.28600433 1.1306599 4285561733
2.8379767 0.28399852 1.1281101 4285693322
2.8922987 0.29203433 1.1229244 4285694091
2.9266534 0.28359172 1.1153307 4285890698
2.9929175 0.29085636 1.1111277 4285759115
3.042381 0.27749559 1.1261903 4285890957
3.0895197 0.29310977 1.1095362 4285693833
3.1339457 0.29540157 1.1027218 4285627530
3.2302768 0.28363645 1.1411409 4287402906
3.2727942 0.27808341 1.1296275 4287468445
3.3100324 0.271301 1.1289318 4287468957
3.370249 0.28088355 1.1215062 4287336858
3.4281197 0.28520989 1.1136518 4287535010
3.4698372 0.2612783 1.1125512 4287206044
2.6707501 0.33372244 1.1487356 4285890441
2.7103343 0.34170389 1.1196089 4285956234
2.7705152 0.33202517 1.1144474 4285825168
2.8134 0.33524308 1.110948 4285693587
2.8859334 0.34155637 1.1181571 4285760400
2.9274256 0.33442172 1.113238 4286023829
2.9792373 0.34265542 1.1133337 4286680994
3.0005133 0.32403356 1.1426065 4286681506
3.0756507 0.33293718 1.1145017 4286220442
3.129786 0.31931651 1.1352129 4286284690
3.1801448 0.33568364 1.1247702 4288390577
3.2145114 0.31788248 1.1324841 4287470243
3.2672043 0.33300135 1.1301479 4287863463
3.3457761 0.31626868 1.1201208 4287995047
3.3594601 0.34276411 1.1261228 4288062638
3.4015152 0.31684893 1.1418169 4288059552
3.4615476 0.34283793 1.1246518 4288258734
2.6764221 0.37958902 1.1218345 4286088079
2.7735608 0.3851057 1.106833 4286614943
2.8177838 0.37805989 1.111774 4286747042
2.8773334 0.36826643 1.1284162 4286878627
2.9305844 0.38552764 1.1120354 4286156444
2.993794 0.39157787 1.1139685 4286353566
3.0279837 0.378416 1.1053767 4286287773
3.1458857 0.36162794 1.1163861 4286944167
3.1976912 0.37162757 1.1465963 4288261051
3.22317 0.377882 1.121819 4287603892
3.2939444 0.38130561 1.120928 4288260021
3.3330567 0.38458541 1.1053208 4288064442
3.3658071 0.3813892 1.127854 4288197058
3.7694879 0.38948572 1.1067033 4287931575
2.6829565 0.42012763 1.132585 4286613650
2.7229028 0.43738264 1.121183 4286549144
2.7512028 0.40921929 1.1075929 4287668398
3.2429404 0.42269236 1.1328864 4287603635
3.2827895 0.43324018 1.1249726 4287867321
3.3242919 0.43495551 1.1264778 4287143854
3.3866122 0.43461004 1.111607 4288265177
3.433486 0.44753087 1.1435518 4287274671
3.4653206 0.42193973 1.117276 4287735992
3.7915046 0.44293573 1.1094633 4287080893
3.8060226 0.40498978 1.1034508 4287341751
3.8670113 0.42356312 1.1070164 4286883514
2.5879703 0.49254963 1.148254 4286746270
2.6167979 0.47809279 1.1471591 4286942873
2.6720791 0.48995596 1.1412809 4286745753
2.7380707 0.47538602 1.1197921 4287141797
2.9372284 0.498851 1.1494119 4287080381
3.1930103 0.45173272 1.1050599 4287208106
3.278646 0.47939789 1.1246357 4287407029
3.322103 0.48085243 1.1210059 4287407029
3.4287407 0.49019414 1.1270857 4287737023
3.5120473 0.47687674 1.1136674 4287473081
3.5749669 0.49600112 1.1143287 4287538873
3.7050488 0.49741188 1.1049888 4287145400
3.8131256 0.48412421 1.1129949 4286949306
2.5188935 0.54384226 1.11154 4287272614
2.5647175 0.53124911 1.1328282 4287799470
2.6168365 0.53526717 1.1108136 4286943648
2.6661444 0.52644491 1.1291199 4288128691
2.7343557 0.52492112 1.1288713 4287536554
2.7598977 0.50465941 1.1047713 4288457145
2.9301205 0.52680033 1.1464393 4288129727
3.0414221 0.54104131 1.1471632 4287931316
3.2691681 0.52453887 1.1400182 4287078063
3.3104568 0.52999336 1.1178602 4286946991
3.3905735 0.5451827 1.1219209 4287078581
3.4189975 0.52055144 1.1203628 4287408572
3.491689 0.53591639 1.133047 4287340723
3.5036023 0.50220877 1.1394476 4287340980
3.5936515 0.54789609 1.1228648 4287407544
3.6465065 0.5039292 1.1116447 4287277247
3.7603436 0.54312921 1.1187494 4287342266
3.8357008 0.52592397 1.11677 4287144887
2.480639 0.58975321 1.1072019 4287733933
2.5092809 0.57138854 1.1097885 4287470249
2.5806947 0.58028233 1.1335973 4289379529
2.6301458 0.55348265 1.1365808 4289445068
2.670032 0.56029224 1.1351746 4289247432
2.7400301 0.56321853 1.1368564 4289181894
2.7840168 0.57771999 1.1181693 4288720829
2.9369423 0.57658261 1.1487859 4288524227
3.0055208 0.5661059 1.1316659 4288062901
3.0821962 0.55533552 1.1295278 4288194491
3.1326954 0.56177825 1.1261081 4287537076
3.1669109 0.58615631 1.1038043 4287603126
3.2116988 0.56191719 1.1326455 4287406004
3.2719455 0.57842314 1.1281035 4287144112
3.3035352 0.56662834 1.1220337 4287868864
3.3566349 0.58513981 1.1074482 4287472310
3.4396455 0.58498818 1.1000888 4287472312
3.4506643 0.55286294 1.1180474 4287341237
3.5332077 0.56413984 1.1204987 4287406776
3.5542905 0.58939904 1.1010035 4287014073
3.6993554 0.59786046 1.1087972 4286685621
3.7120271 0.55089808 1.1289386 4287080118
3.7780418 0.58842736 1.1262097 4286421936
3.8708181 0.57987356 1.1312788 4286092715
3.9499159 0.58674604 1.1124607 4284844196
2.4377174 0.62707186 1.1364781 4288720063
2.4908082 0.63514024 1.1172502 4290366179
2.5222797 0.61593032 1.1388384 4289510861
2.6217442 0.61974168 1.1122754 4289970901
2.69155 0.64623624 1.1200032 4289905110
2.7210808 0.61360109 1.1291814 4289510603
2.756016 0.63991588 1.1497669 4288589501
2.9381895 0.6448648 1.112196 4289115842
2.9552414 0.60536379 1.1224264 4288260791
3.0181506 0.6183008 1.1081579 4288523709
3.148392 0.64103699 1.108753 4287604151
3.2853596 0.62692493 1.1298755 4287540156
3.6418118 0.60189748 1.1031083 4286882485
3.6922851 0.61993384 1.1473988 4285172386
3.7419846 0.6099484 1.1440521 4285106335
3.7696018 0.62854683 1.1355164 4285434270
3.8286259 0.62424028 1.1236769 4285632422
3.8697221 0.62667853 1.1140636 4285105822
3.9084232 0.60910088 1.1101063 4284778656
2.4211931 0.66184229 1.127749 4289706958
2.5712907 0.66450495 1.1029332 4290694379
2.6355324 0.67058623 1.1126865 4290563303
2.7155881 0.68724668 1.1336986 4289839572
2.7934339 0.67692626 1.1495843 4288721853
2.8440857 0.69809765 1.1499788 4289904850
2.9112256 0.66884494 1.1250503 4289116101
3.0391717 0.67438489 1.1087685 4288589245
3.0796349 0.66138262 1.114408 4288129721
3.1452348 0.68437016 1.1156241 4288129980
3.1805916 0.67924941 1.1068839 4287867324
3.2413092 0.67767686 1.1232884 4288130239
3.2620463 0.68235862 1.124015 4287999681
3.3114312 0.68071336 1.1252432 4287012786
3.6619351 0.67431682 1.1467704 4285499804
3.7274446 0.66786218 1.140741 4285499551
3.768971 0.68538743 1.1320024 4285237921
3.8374012 0.66467285 1.1207474 4285171869
3.8775349 0.67885852 1.1056449 4284844192
2.4001596 0.72286069 1.1405019 4289773002
2.645349 0.70959419 1.1144387 4291418873
2.6825948 0.72271597 1.1367224 4289839566
2.7426071 0.73463935 1.1345695 4290562527
2.764009 0.74771452 1.1251955 4290235365
2.8122759 0.74420536 1.1436112 4290430686
2.8582246 0.71453738 1.1265528 4289904854
2.9056756 0.70424569 1.1078333 4289246663
3.0588398 0.74456257 1.1499828 4287867837
3.1472843 0.7409867 1.1155859 4289250008
3.1793544 0.72732782 1.1270897 4288921042
3.2198286 0.73039734 1.1401556 4287539133
3.2756808 0.72691274 1.1215934 4288329415
3.3141193 0.73475415 1.118991 4287276214
3.3718698 0.71389139 1.1063213 4287935430
3.4093018 0.73291624 1.1072947 4287606721
3.6278908 0.71836883 1.1445452 4285500579
3.6891241 0.73743856 1.1264038 4286618802
3.7731228 0.7248863 1.1464489 4285434270
3.8278313 0.71144336 1.1204975 4285106337
3.8735011 0.72163558 1.1229085 4285040798
3.9320524 0.73315269 1.1189463 4284712607
3.9884276 0.73668295 1.1272621 4284515744
4.0090575 0.72663659 1.1076884 4284254110
4.0838923 0.73858029 1.1021889 4284188567
2.392956 0.77273655 1.1051339 4291616249
2.4178629 0.76187301 1.1419766 4290562531
2.4689102 0.76574779 1.1151066 4291222518
2.5368578 0.7804265 1.1309106 4290827251
2.5957224 0.78259528 1.11462 4290893299
2.6330402 0.77896714 1.1307005 4290760937
2.6822133 0.78505456 1.1235018 4290169059
2.7023575 0.76352543 1.1121447 4289970897
2.7736986 0.7920205 1.1303506 4290299871
2.8022227 0.7680065 1.1317391 4289511113
2.8709192 0.7756573 1.1184385 4289839315
3.02035 0.77949393 1.1324266 4287801789
3.0813606 0.78335565 1.1294448 4287603898
3.1293151 0.78100067 1.1208181 4287802305
3.1831849 0.75570208 1.1194879 4287670204
3.2197859 0.78657669 1.1424533 4286420651
3.274976 0.77737838 1.1283023 4286551719
3.3202484 0.77714181 1.1274468 4286354854
3.3760946 0.76284587 1.106801 4287014837
3.4307323 0.78006834 1.122851 4285763746
3.4573228 0.75707179 1.1404597 4285763234
3.5144262 0.76811349 1.1361779 4285698726
3.5668066 0.78845096 1.1302798 4285566113
3.6305954 0.7648139 1.1440097 4285695899
3.7201736 0.78437263 1.1340157 4286026921
3.7936149 0.75642288 1.1214381 4286290353
3.823107 0.79140848 1.1305945 4286159538
3.8755488 0.76995814 1.141247 4285040541
3.9129679 0.77631342 1.1257889 4285239462
3.9875329 0.77864796 1.1168197 4284581278
4.0389767 0.77344775 1.1111591 4284515999
4.14043 0.75992644 1.1041716 4284385187
4.1649165 0.78849316 1.1109452 4284384671
4.2960882 0.77441949 1.1037823 4284188835
2.3743129 0.81849021 1.1023842 4292866558
2.4092879 0.8259896 1.1332253 4291484148
2.4856856 0.81538951 1.131562 4291222266
2.5060339 0.82981753 1.1352679 4290761464
2.6421328 0.82117796 1.1466944 4291484919
2.6608851 0.80951244 1.1019579 4290958319
2.7329543 0.82277721 1.1159284 4290629870
2.791018 0.80400068 1.1070577 4290958064
2.8177691 0.81977862 1.1263372 4289774556
2.8730438 0.82552451 1.1297083 4290038497
2.926069 0.82850736 1.115854 4289446614
2.965476 0.82621694 1.1217625 4289117135
3.0232365 0.82890075 1.1296896 4289051345
3.0650311 0.82635242 1.1120641 4288130756
3.1298294 0.8272748 1.1277212 4288130757
3.1877992 0.82754683 1.1211128 4287013040
3.227983 0.82527542 1.1056671 4286880688
3.287137 0.82691383 1.1185956 4286880940
3.3045874 0.80411977 1.128872 4285828514
3.3636978 0.83495677 1.1062638 4285959582
3.4168241 0.83095568 1.1143972 4285762978
3.4867678 0.82942492 1.115374 4285631906
3.5820978 0.83341324 1.1201952 4285631133
3.6153619 0.82165033 1.1351768 4285762205
3.6753242 0.83010751 1.117919 4286092968
3.7244713 0.82211429 1.1289468 4285830055
3.7860336 0.82020301 1.1284473 4285764779
3.8349998 0.82159835 1.1185244 4287147717
3.8635931 0.81683755 1.1336653 4284646811
3.9218819 0.81972855 1.1187744 4285107365
3.9892883 0.8333652 1.1123755 4284384669
4.0263104 0.81112146 1.1088605 4284515738
4.0937052 0.84599531 1.1071672 4284515487
4.1159458 0.81591475 1.106509 4284384672
4.2034249 0.81892049 1.1081682 4284124066
4.3013964 0.81196165 1.1056502 4284188577
2.3985963 0.86229944 1.1253284 4292799484
2.6476133 0.87097257 1.1472465 4292734970
2.7269893 0.86040473 1.108126 4289377992
2.761039 0.85374397 1.1196289 4290432238
2.8274848 0.87312394 1.1255548 4290431714
2.8813338 0.86232817 1.1196361 4289839832
2.9308951 0.87452012 1.1233119 4290300388
3.0228653 0.85276622 1.1105974 4290367732
3.4390731 0.87487429 1.1196001 4285894822
3.4787283 0.87220407 1.1072643 4285697187
3.5278513 0.8631683 1.1120173 4285696672
3.588604 0.85558498 1.1170864 4285566117
3.6273968 0.88683325 1.1187676 4285368475
3.6836016 0.8674643 1.1275264 4285368991
3.7751169 0.86530232 1.1293099 4285106079
3.82374 0.85031563 1.111498 4284909728
3.8857799 0.86886191 1.1249862 4285962929
3.9219332 0.87597257 1.1185608 4284647326
3.9843507 0.89942956 1.1324531 4284778399
4.0141234 0.85828739 1.1265087 4284646554
4.0621982 0.87048066 1.1068852 4284450203
4.1188202 0.8525846 1.1024468 4284449949
4.2002521 0.86674416 1.1083102 4284189348
2.628464 0.90448129 1.1479117 4294180347
2.8196554 0.91223294 1.1150106 4290693859
2.8863497 0.92621469 1.1237687 4289705929
2.9350116 0.93442166 1.1177731 4288387752
2.977001 0.92832637 1.141084 4291549940
3.333739 0.93216527 1.113271 4286485160
3.5139008 0.92828095 1.144683 4285762723
3.5544569 0.90385538 1.1324798 4285763234
3.6250658 0.91413391 1.1248146 4285368480
3.6781526 0.9349314 1.1463485 4285303455
3.7118268 0.92365307 1.1261079 4285434016
3.7711642 0.90380323 1.1297424 4285172130
3.8303399 0.92235804 1.1280624 4284777630
3.8654225 0.92990184 1.1254932 4284778658
3.922863 0.92688298 1.1350121 4284646555
3.9784336 0.94685882 1.1450403 4284909213
4.032383 0.92955184 1.1220745 4284449949
4.0660586 0.90720147 1.1087651 4284449691
4.170465 0.90894669 1.1017569 4283992225
2.9835551 0.9711442 1.1267188 4287333264
3.0765631 0.9825933 1.1003287 4286810516
3.2752435 0.96988386 1.1194291 4286224305
3.3746331 0.96606624 1.1275879 4286353574
3.5912237 0.97657198 1.1126124 4285238179
3.6816862 0.97724468 1.1144757 4285368478
3.7660675 0.95605505 1.1481774 4285695648
3.8285964 0.98195744 1.1420937 4285106591
3.8511627 0.98706645 1.137174 4285367456
3.9223831 0.97262019 1.1388102 4284974492
4.0305223 0.97871691 1.1200647 4284647581
4.066937 0.96445382 1.1147264 4284515485
4.1035671 0.95720786 1.1009161 4284514462
3.0371857 1.0318489 1.1119211 4287005329
3.0962679 1.0101225 1.1085172 4286479498
3.1313596 1.0435765 1.1220171 4286347655
3.1670799 1.0216593 1.1106163 4287009701
3.2765136 1.0277565 1.1181682 4286354857
3.3939691 1.0452389 1.1083368 4287998398
3.4114447 1.0242743 1.1254404 4286025640
3.4834673 1.0361592 1.1077523 4285829031
3.6303866 1.0384874 1.1140395 4285368994
3.6685598 1.0192446 1.1125762 4285040796
3.7765236 1.0176471 1.1209788 4285106591
3.807373 1.0205075 1.1135466 4285040285
3.873822 1.009354 1.1137978 4285041058
3.9203176 1.0270985 1.1322535 4284974494
3.9895682 1.0311821 1.1252303 4285041310
4.0269055 1.0233854 1.1213223 4284647324
4.0755224 1.0195856 1.1139649 4284581532
4.1255097 1.0121808 1.1076066 4284319388
3.0935926 1.0682063 1.1015894 4286480268
3.1216741 1.0707252 1.120887 4286742668
3.1514924 1.0722321 1.1304202 4286478723
3.208873 1.0794084 1.127488 4286152074
3.2950456 1.0631242 1.1312796 4287143343
3.3162067 1.0779663 1.12809 4287010221
3.4218011 1.0738392 1.1426618 4286223533
3.4941847 1.087942 1.1365401 4286090916
3.509228 1.0671076 1.1166954 4285500066
3.632432 1.0691922 1.1284561 4285566114
3.7226388 1.0707836 1.1297013 4285303457
3.7719209 1.058954 1.1183321 4285237668
3.8745852 1.0607876 1.1085931 4284713118
3.9793749 1.0511826 1.1088122 4284844197
4.1639333 1.096715 1.1037806 4284648103
3.1930802 1.1132854 1.1144092 4285953921
3.3232169 1.1176485 1.143312 4286550436
3.3597627 1.1269859 1.1443291 4287143602
3.4402122 1.1072345 1.120337 4288524483
3.4745603 1.1191819 1.1433368 4286551469
3.5168076 1.1024599 1.1097329 4287802558
3.5907314 1.1487778 1.1188351 4287737791
3.6287775 1.1231866 1.1349392 4285698472
3.6590009 1.1249132 1.1318958 4285763239
3.7702715 1.1269431 1.1390221 4285434015
3.8637047 1.1257112 1.1141796 4284844446
4.1482573 1.1124362 1.102237 4286030267
4.366529 1.135769 1.1319938 4286031291
3.3245411 1.1594132 1.1355916 4286285197
3.3745258 1.1867005 1.1295711 4287274149
3.400846 1.1541957 1.146404 4286749616
3.5229785 1.158367 1.1123149 4287867835
3.6866307 1.158089 1.1478018 4285698214
3.7155249 1.180163 1.1435409 4285960615
3.8164859 1.1639988 1.1274221 4285566114
3.8574481 1.1874141 1.1201398 4285369766
3.931638 1.1742311 1.1014675 4285172389
3.4335213 1.2058097 1.1250055 4287142579
3.7855642 1.2006277 1.1387225 4285829801
3.8455517 1.2301662 1.1447649 4285566370
3.882369 1.2299654 1.1404998 4285632935
3.9299929 1.2286154 1.128038 4285500580
3.976068 1.2399399 1.1146827 4285434272
3.5751956 1.2557315 1.1449817 4286551467
3.8774786 1.2729552 1.1215532 4286949055
3.9313779 1.2803978 1.1305723 4285894565
3.9943626 1.293117 1.1072757 4287871958
4.0167184 1.2826983 1.1079575 4285369767
3.9750524 1.3070379 1.1296268 4285698215
4.0182576 1.3272333 1.1120286 4288200153
4.069541 1.3229901 1.1224693 4285501095
4.0857987 1.3979278 1.1179947 4285566890
4.1111717 1.3788149 1.1318288 4285501097
4.1322861 1.4139004 1.145956 4285895594
4.1515617 1.4596875 1.1239002 4285566631
3.0891483 -0.81331766 1.1986961 4287535261
3.1631041 -0.82496566 1.1837808 4287665562
2.982646 -0.78424752 1.1775403 4287535774
3.1863844 -0.7998305 1.1903336 4287532688
3.2125182 -0.78743875 1.1659778 4287796896
3.2709844 -0.780285 1.1857145 4287336861
3.3617866 -0.78125417 1.1943537 4287864224
3.4179358 -0.75732112 1.1768838 4287469469
2.704581 -0.70430011 1.187304 4287665804
2.7609167 -0.72058862 1.1838593 4287864727
3.438987 -0.72182631 1.1929488 4285229414
2.6261437 -0.68155587 1.1931511 4286941067
3.379652 -0.65222508 1.1586703 4285097823
3.4030697 -0.67462856 1.1891862 4285163359
3.1363287 -0.60926002 1.1726309 4285099889
3.2263987 -0.62744057 1.1742721 4285427054
3.2620363 -0.61196315 1.1726534 4285294954
3.3488605 -0.61384398 1.1781156 4285163106
3.3613863 -0.60423994 1.1857187 4284966241
2.983218 -0.55991346 1.1643759 4284309591
3.058255 -0.59356415 1.1636707 4284836717
3.1306005 -0.57417411 1.1781579 4284900453
3.1719501 -0.55573297 1.1758783 4284440406
3.2009418 -0.58681035 1.1681716 4285228899
3.2726603 -0.58482325 1.1842842 4285492849
3.3169875 -0.57500428 1.1753621 4285229159
3.3982325 -0.57858121 1.1638024 4285031776
2.6972001 -0.50126505 1.1978607 4284505958
2.7550638 -0.51527953 1.1857494 4284505956
2.8353386 -0.52767682 1.1876619 4284637534
2.8573315 -0.52612185 1.1714395 4284374616
2.9354987 -0.5411576 1.1808158 4284374618
2.98858 -0.50121272 1.175594 4284310104
3.0453134 -0.50159937 1.175212 4284440664
3.1195207 -0.50472468 1.1805463 4284244062
3.1702983 -0.51493007 1.1586429 4284309595
3.3255148 -0.51699156 1.1689801 4285294949
3.3765731 -0.52767307 1.1511405 4286019451
3.4231455 -0.52040422 1.1792384 4285229160
2.7767956 -0.46052843 1.1938499 4284636767
2.8114843 -0.4574084 1.1978673 4284374368
2.9202068 -0.47366813 1.1787887 4284440922
2.9979012 -0.45675996 1.1824069 4284506464
3.0516956 -0.46121335 1.1756769 4284440413
3.1181591 -0.46207723 1.1780299 4284571997
3.1811178 -0.46692023 1.1658195 4284309848
3.3247356 -0.47336859 1.1704235 4285426537
3.4348955 -0.45721114 1.1836355 4285163365
3.4667168 -0.48917139 1.1682687 4285888116
3.5034385 -0.46382135 1.1546801 4285822587
2.4722157 -0.42068172 1.155895 4284308825
2.6201162 -0.43100756 1.1847671 4284636759
2.668977 -0.4308219 1.1963537 4284439898
2.7097845 -0.4480249 1.1851805 4284570976
3.0088549 -0.40615115 1.1874443 4284506719
3.0714319 -0.40720576 1.1693608 4284440928
3.1020455 -0.43838951 1.1710414 4284375394
3.1654537 -0.41574264 1.1666616 4284309593
3.264756 -0.42077872 1.1693469 4285229931
3.3276331 -0.41710439 1.1765312 4285624948
3.3882442 -0.40789863 1.1918629 4284967273
3.4579358 -0.42016774 1.1639475 4286085251
3.5047162 -0.43533599 1.1502239 4286019709
2.0578849 -0.36780372 1.1652671 4284440160
2.2331161 -0.38907003 1.1618567 4284374615
2.9765453 -0.35908711 1.1921475 4284440673
3.0406604 -0.35580432 1.1666094 4284441437
3.1040812 -0.35876453 1.154606 4284309853
3.1738017 -0.37211838 1.1717536 4284572254
3.2256107 -0.38657412 1.1643647 4285295722
3.3262062 -0.37214392 1.1681695 4285493103
3.4118376 -0.37526447 1.1550657 4286281604
1.5910524 -0.32106423 1.1979456 4283847764
1.6170578 -0.32601205 1.1706266 4283847766
1.775578 -0.34632468 1.1865604 4283913814
2.9239202 -0.3132892 1.1950095 4284309861
2.9552345 -0.30257553 1.1856087 4284244070
3.0166945 -0.30929539 1.1699013 4284441185
3.1829207 -0.32714432 1.1671429 4284769637
3.3168335 -0.32713023 1.1666327 4285427567
3.4095907 -0.33271009 1.1525036 4286085761
2.9455473 -0.27078715 1.1910334 4284572001
2.9971483 -0.25681385 1.1781291 4284376161
3.0299714 -0.26126185 1.1581835 4284440927
3.064894 -0.2969065 1.150813 4284506453
3.2293203 -0.26854947 1.1759326 4284901734
3.2774434 -0.27299738 1.1746557 4285099115
3.3277268 -0.26292941 1.1750717 4285493618
3.4683614 -0.27396184 1.1676829 4286677376
2.9433949 -0.2499847 1.1998252 4284703845
3.0183134 -0.20783764 1.1675436 4284573030
3.1972468 -0.20932694 1.1879144 4284770406
3.2321587 -0.21714042 1.1624888 4284705378
3.2825758 -0.21541135 1.1715232 4285822069
3.3213761 -0.21477342 1.1870773 4285888118
3.3810377 -0.23704001 1.1686807 4285493103
3.4302411 -0.20831677 1.1659238 4285558642
3.4652956 -0.22752644 1.1576518 4286284158
2.9943697 -0.15369001 1.1776742 4284704877
3.0346379 -0.15749367 1.1637403 4284639081
3.1005971 -0.15238653 1.156962 4284835431
3.2213902 -0.16069987 1.1694498 4285493618
3.2708447 -0.16319036 1.1767311 4285625717
3.3236673 -0.15232557 1.1837842 4285888122
3.4105635 -0.17593989 1.1924137 4285756276
3.4677629 -0.1691688 1.1719487 4285690996
2.9850481 -0.10063599 1.1986502 4285033322
3.0249703 -0.10418209 1.1760795 4284967790
3.0992405 -0.10989732 1.1544549 4284770669
3.2327468 -0.12981039 1.1899941 4285428081
3.2801747 -0.13220139 1.1715789 4285560438
3.3290815 -0.10841545 1.1828988 4285822068
3.4155538 -0.11394282 1.1901605 4286018941
3.4980164 -0.14264536 1.1963962 4285822072
3.5101762 -0.13446352 1.1637837 4285822073
2.7850533 -0.054369166 1.1939099 4284770413
2.8358228 -0.062079743 1.1896991 4284835694
2.8920407 -0.065178655 1.1884199 4284837231
2.9684238 -0.058999851 1.190183 4284968044
3.0021353 -0.061096489 1.1817778 4284705388
3.0502532 -0.053704426 1.1668781 4284771440
3.2194867 -0.065996371 1.1882646 4285493362
3.2580204 -0.06501174 1.1699448 4286217599
3.3344719 -0.064209998 1.1819867 4286282621
3.3648615 -0.067704625 1.1905051 4285297264
3.4111152 -0.056985565 1.1849728 4286019453
3.4916587 -0.061066285 1.1889659 4286019969
3.5060883 -0.097922519 1.1781359 4285953402
2.7377083 -0.015091283 1.1892371 4284770668
2.7824869 -0.011746755 1.175673 4285033329
2.8377883 -0.010745728 1.1709265 4284704878
2.8774216 -0.025330024 1.1737545 4284639084
2.9660993 -0.018546052 1.1765893 4284507243
3.0512977 -0.0013113637 1.1647954 4284771183
3.2245131 -0.0085682292 1.1703193 4286218114
3.2530277 -0.017475678 1.1875057 4286151808
3.3107269 -0.0064042751 1.1928612 4286282621
3.3711102 -0.0066888616 1.1863427 4285691769
3.4066758 -2.8388575e-05 1.179785 4286480007
3.4638629 -0.022354726 1.1614962 4286151551
2.6774898 0.029983096 1.1865401 4284968049
2.7438691 0.040804438 1.1692371 4284901743
2.7748919 0.017200211 1.1711977 4284376945
2.839206 0.034817047 1.165936 4284967535
2.9255767 0.017972942 1.1697695 4284836204
2.9835248 0.042259604 1.1697739 4284770924
3.0422945 0.04067117 1.159418 4284770924
3.1838212 0.041511878 1.1799886 4285624956
3.2160032 0.022737609 1.1661603 4286612878
3.3072729 0.037913702 1.1888247 4286282881
3.368984 0.036074229 1.1918986 4285823356
3.426091 0.045799673 1.1722543 4286020992
2.6323647 0.0817063 1.181848 4285099633
2.6691041 0.071179479 1.1687098 4285099376
2.7417452 0.081079848 1.1611538 4285361524
2.8156626 0.084062845 1.164494 4285428084
2.8596172 0.083693027 1.1615884 4285100148
2.9062068 0.063260205 1.160054 4285033071
2.9818835 0.09368816 1.1667393 4285164400
3.0457304 0.093110159 1.1582576 4284968306
3.1904237 0.079547375 1.1853848 4285626495
3.2220111 0.064327165 1.1843495 4285954950
3.2739818 0.083151944 1.1908784 4286349704
3.324075 0.091505028 1.1842829 4286349961
3.4421732 0.091689527 1.180602 4286218116
3.45274 0.087404795 1.1511399 4285758078
2.6372433 0.13122267 1.179585 4285428598
2.6845305 0.13543358 1.1528413 4285231218
2.8007669 0.13231297 1.1562041 4285428599
2.872508 0.12862569 1.1646707 4285428086
2.9186118 0.12387846 1.1621121 4285230967
2.9802423 0.14511673 1.163705 4285363062
3.0292435 0.14566639 1.1606296 4285100146
3.0920622 0.14982679 1.1543542 4285363063
3.1922078 0.12532392 1.1901562 4285822337
3.2180157 0.13294849 1.1745042 4285955458
3.2615879 0.13835825 1.1887515 4286743434
3.3287306 0.13630213 1.1894243 4286744205
3.3556261 0.13377713 1.1827163 4287402396
3.4336619 0.13282725 1.185129 4285955969
3.4627419 0.13808224 1.1842382 4286481032
2.6797049 0.18872961 1.1760275 4285428346
2.8710818 0.17332251 1.1620334 4285559420
2.9238405 0.1847032 1.1613408 4285429373
2.9870212 0.19662407 1.158455 4285298046
3.0452652 0.18771707 1.1536422 4285428859
3.0762901 0.18148616 1.1745023 4285758084
3.1014879 0.17686231 1.1954446 4286022030
3.1669817 0.16720459 1.1910679 4285693319
3.2206237 0.1881818 1.1799303 4286218632
3.287056 0.18134587 1.1813467 4286481547
3.3417029 0.18745123 1.1841638 4286810769
3.3662558 0.1813394 1.1762273 4287138451
3.4276898 0.17067648 1.1859466 4286481034
3.4643734 0.1731693 1.1769331 4286153606
2.7160242 0.24144906 1.1762989 4285495169
2.8558321 0.20229056 1.154591 4285297529
2.9014046 0.21373455 1.1511755 4285429633
3.1013372 0.21788433 1.1951141 4286549143
3.1711867 0.21921034 1.1970321 4286219405
3.2223051 0.23767179 1.1828461 4286613388
3.2671494 0.22919175 1.1741972 4286613648
3.3133097 0.21631905 1.1745622 4287534753
2.6780312 0.28467709 1.175714 4285693063
2.998616 0.29432151 1.1926115 4286812066
3.0318446 0.2803129 1.1733217 4286482840
3.0850301 0.29845637 1.1882915 4286220178
3.11428 0.27589193 1.1767855 4286285204
3.177547 0.27643484 1.177996 4286349965
3.2181942 0.28836101 1.1656135 4286877334
3.2720633 0.26493031 1.1563996 4287337627
2.6221921 0.33430994 1.1898714 4285956746
2.6527479 0.33647794 1.1840221 4286023051
2.8225858 0.33898145 1.1774503 4287205794
2.8644667 0.33358106 1.1856558 4286812836
2.9201608 0.34029916 1.1712433 4287141798
2.9709952 0.31784964 1.1746552 4287140512
3.0649474 0.32373357 1.1938576 4286419104
3.1289239 0.32817632 1.1894436 4286353315
3.1894073 0.32875559 1.1808339 4286615201
3.2162564 0.32540169 1.16634 4287139735
3.2702646 0.32831115 1.1539474 4287205524
3.3174939 0.34706694 1.1532972 4287074454
2.5753798 0.39005303 1.1997721 4286284682
2.6289551 0.38448441 1.16673 4286153613
2.7463286 0.38010421 1.165235 4287536045
2.798687 0.3597441 1.1658204 4287337896
3.0397167 0.38496268 1.190362 4287141804
3.0697813 0.36827841 1.1920565 4286945965
3.1135404 0.37093985 1.1740096 4287077808
3.1880543 0.37615317 1.1794239 4285628817
3.2399008 0.38241464 1.1775767 4287601316
3.2746925 0.3740077 1.1706394 4287601313
3.3424904 0.39270502 1.1642267 4287274666
3.4481514 0.35630128 1.1550339 4288259503
2.3565707 0.42515212 1.1936282 4286941075
2.4117734 0.42973405 1.1950333 4286679185
2.5716476 0.43891087 1.1910843 4286614168
2.6261678 0.42511028 1.1632978 4286350996
2.7265329 0.40934134 1.169944 4287800242
3.064599 0.41829637 1.1930959 4287275441
3.1138897 0.42461142 1.1813583 4286946480
3.1698604 0.42469534 1.164206 4286815408
3.2225006 0.42773962 1.1551286 4287209399
3.2657461 0.43297181 1.1822554 4286616486
3.3194599 0.43814296 1.1729223 4286748840
3.4459348 0.40255058 1.1510041 4287734456
2.3122184 0.47542 1.1945518 4287140765
2.36114 0.47541252 1.1848637 4287074459
2.4225643 0.47616357 1.1883463 4287271069
2.4749358 0.47953695 1.1907526 4286747293
2.5156317 0.48816872 1.1880161 4287140771
2.565908 0.48247689 1.176929 4286942877
2.6109023 0.46060956 1.1694959 4286679965
2.7430503 0.4615947 1.1546037 4288391863
2.9728394 0.47512913 1.163536 4287472826
3.0243649 0.47309211 1.1737496 4287538106
3.0693419 0.47974256 1.1742673 4287275704
3.1211438 0.47871828 1.1865216 4287472308
3.168462 0.48422584 1.1740928 4286617513
3.226531 0.47157034 1.1752676 4287011758
3.2601202 0.48483798 1.1747328 4286550433
3.3179946 0.48693916 1.1511167 4286815147
2.3159866 0.52548963 1.194391 4287535269
2.3594129 0.52952385 1.181671 4287667111
2.4120321 0.51809323 1.1840793 4287601061
2.466202 0.53178024 1.17102 4287338663
2.5169635 0.53334206 1.1553305 4287141026
2.5758181 0.52186203 1.1542468 4287733932
2.6317146 0.52303004 1.1950068 4288062388
2.6523964 0.5228067 1.1578879 4288458175
2.7419219 0.51270729 1.1989648 4288325557
2.9151042 0.53667057 1.1977596 4287207854
3.0117388 0.52153629 1.1702647 4288063672
3.0676472 0.51954508 1.1628064 4287734454
3.1323636 0.53172207 1.1708858 4287011498
3.1665885 0.52245647 1.1675004 4287472051
3.2244968 0.5276435 1.1584275 4286946473
3.282114 0.53294462 1.1541035 4287342005
2.3032603 0.5676192 1.193929 4287601577
2.3754139 0.57071078 1.1878319 4287798697
2.4569016 0.58098829 1.1699052 4287470249
2.5745311 0.56076562 1.1748909 4288917181
2.7386849 0.58612633 1.1924545 4287669681
2.781342 0.56815672 1.1954054 4287734446
2.8343947 0.58570868 1.1846068 4287799728
2.8813417 0.57311046 1.1935436 4287536558
2.9851749 0.57233721 1.1823808 4287866291
3.0219097 0.57271385 1.1780488 4287800500
3.0796025 0.57703578 1.1784809 4287867320
3.1389928 0.57101512 1.1788275 4287538355
3.1657772 0.58259344 1.1730958 4287276467
3.2269444 0.58502471 1.1633255 4287341491
3.2819941 0.56551683 1.1538413 4287670202
3.5277503 0.58385921 1.1906948 4285696667
