# .PCD v0.7 - Point Cloud Data file format
VERSION 0.7
FIELDS x y z rgb
SIZE 4 4 4 4
TYPE F F F U
COUNT 1 1 1 1
WIDTH 1152
HEIGHT 1
VIEWPOINT 0 0 0 1 0 0 0
POINTS 1152
DATA ascii
4.1656008 -0.28248987 1.126984 4287270307
4.2091393 -0.27355978 1.1212902 4287863193
4.2661996 -0.27734238 1.103457 4287207841
4.0920038 -0.21371338 1.1269394 4287732390
4.1404428 -0.22263074 1.129082 4287731877
4.1836023 -0.23833387 1.1293137 4287467422
4.2109499 -0.23102014 1.1128635 4287336093
4.1406589 -0.16214712 1.1354513 4287666597
4.2223229 -0.17188305 1.1309881 4287402141
4.1949372 -0.13750125 1.103847 4287665827
4.214551 -0.12257292 1.1154511 4287467681
4.2774067 -0.11156068 1.1179047 4287206046
4.1465645 -0.053466454 1.1016424 4287533729
4.1759257 -0.067095563 1.12122 4287599271
4.3650765 -0.084905937 1.118493 4285888131
4.4084978 -0.056958843 1.1111519 4286151557
4.4211779 -0.027803395 1.127502 4284769900
4.1296682 0.00062559173 1.1116948 4287533210
3.7877798 0.086336777 1.1148025 4280163617
3.6328893 0.10594964 1.1032848 4286612376
3.6955993 0.13234526 1.1180416 4287600302
3.7602615 0.15968308 1.1332581 4287730603
3.8627636 0.18950053 1.119487 4287928490
3.9839396 0.22199041 1.1207893 4287008679
4.0678253 0.27359015 1.1124955 4283913829
4.3807344 0.34782404 1.1463223 4288455343
3.9239526 0.38713104 1.1438015 4288587949
3.9750276 0.39206865 1.1273029 4288586414
4.0831876 0.37643349 1.1343415 4288390061
3.835175 0.40897828 1.1133889 4288456114
3.868995 0.4327459 1.1327159 4288456626
3.8668227 0.45765445 1.106302 4288653238
3.9269526 0.47908342 1.1306427 4288457142
3.9413908 0.54913455 1.1164286 4284115324
3.987329 0.52618456 1.102021 4288653753
4.0390911 0.5343982 1.1384575 4288588474
3.9473267 0.58488435 1.1134944 4284441197
4.1466284 0.57663906 1.1169305 4288653239
3.9834609 0.61696637 1.12138 4285165700
4.2590747 0.62228018 1.1367848 4288588210
4.0396962 0.68879479 1.1293819 4288915641
4.4094214 0.6748777 1.1338372 4282070860
4.0945902 0.74395299 1.1323725 4286017407
4.4713078 0.71524101 1.144202 4279965974
4.2035828 0.79227215 1.1281043 4279835445
4.5678663 0.76221287 1.1451808 4282131496
4.2901545 0.83783758 1.146158 4282006364
4.3935709 0.82150984 1.1445773 4283116586
4.4590063 0.83361506 1.1260285 4282854949
4.5296044 0.80145949 1.1383194 4282524707
4.3006105 1.0239673 1.1409686 4283051308
4.3343792 1.0766606 1.1319666 4283576624
4.3984194 1.0924232 1.1133597 4282525736
4.4432387 1.1351519 1.135581 4282788391
4.1502047 1.1727854 1.1175126 4283707942
4.489274 1.1784304 1.1432288 4282526491
4.5574727 1.1956974 1.1085401 4283050543
4.1481123 1.2001622 1.1033441 4281673250
4.1741853 1.2362949 1.1225809 4283575846
4.5194964 1.2174766 1.132786 4282198053
4.5892806 1.2361172 1.113335 4282722861
2.8391209 1.2833881 1.1114056 4280233032
2.8687267 1.2668417 1.128998 4278983477
2.9464924 1.28863 1.1494527 4279512405
3.8833919 1.2671456 1.1052914 4282589228
4.1426368 1.2828622 1.1023153 4282000412
4.1710482 1.2921796 1.149727 4282985254
4.4783897 1.2834972 1.1251955 4281933856
4.5136909 1.277415 1.1005838 4282460193
4.5503254 1.2576286 1.1376562 4282393633
2.5385711 1.3335434 1.1059504 4281692324
2.5933135 1.3450429 1.1242331 4282020004
2.6364191 1.3374271 1.1325935 4281687174
2.7213674 1.3469324 1.1304026 4281552765
2.8661604 1.3402388 1.1172671 4281157494
3.156431 1.3066936 1.1284328 4281224816
3.2499666 1.3224101 1.1060636 4280635507
3.3328874 1.3346419 1.1477578 4281620088
3.3719797 1.3497748 1.1220177 4280961894
3.9332747 1.3092875 1.1193143 4282524440
3.9582162 1.3173157 1.1001916 4280422937
4.0456128 1.3441137 1.1139904 4282065958
4.0993171 1.3111966 1.1343814 4282459932
4.4228134 1.3286904 1.1228912 4281539868
2.7941775 1.354811 1.1257536 4281424516
2.8320332 1.3539968 1.1280044 4283659945
2.9155514 1.370695 1.122166 4281750657
2.9920824 1.3784744 1.1466168 4281549433
3.0145137 1.3884974 1.12523 4281287545
3.1950145 1.3854907 1.1190236 4280358959
3.4831686 1.370168 1.1107786 4283260529
3.5791109 1.3844596 1.1434822 4284576134
3.8167179 1.3964436 1.1163223 4278915093
3.8689113 1.3885738 1.1133748 4278783249
3.9479139 1.3902411 1.1286206 4278520853
3.9841104 1.3656118 1.1335211 4281146401
4.0100498 1.3742244 1.1143361 4279767577
4.0933623 1.3927816 1.1059887 4281803553
4.2701263 1.3863773 1.1325709 4280030235
4.3345199 1.3773142 1.1294451 4280949784
4.3699279 1.3580226 1.12097 4281146143
2.7262602 1.4378421 1.1011753 4281555343
3.0155652 1.4019712 1.124053 4280632940
3.0811114 1.4049423 1.1264331 4280767621
3.1436458 1.4122828 1.1203438 4282474361
3.1738348 1.4151006 1.1290911 4283063680
3.2037251 1.424984 1.1353358 4281089625
3.2839077 1.4201549 1.1265498 4280230967
3.3888166 1.4456862 1.1196467 4279440696
3.6341834 1.4053586 1.1178135 4280625989
3.6928 1.403187 1.1426383 4279639610
3.7491763 1.4066135 1.1201563 4279440413
3.882875 1.4213665 1.1041696 4280096020
3.9204125 1.4220127 1.1278613 4280226326
3.9752882 1.4108807 1.1306506 4280096033
4.0212893 1.4364039 1.1044704 4280162063
4.0544939 1.4036806 1.1300523 4280292377
4.1091313 1.4296215 1.113299 4280096023
4.1750836 1.4128242 1.1152618 4279767062
4.2515855 1.409891 1.1290985 4279832843
3.3641272 1.4513177 1.1231672 4279768351
3.4310184 1.4688534 1.1175513 4279636764
3.910336 1.4778563 1.1245071 4279438873
3.978606 1.4891733 1.1485821 4279832594
4.0344543 1.4552178 1.147621 4280030224
3.5412312 1.5048579 1.1334351 4279702816
3.6060143 1.52289 1.1227381 4279243564
3.7635427 1.5281689 1.1191781 4279374376
3.8105466 1.5216342 1.1080618 4280957006
3.870626 1.5068557 1.125762 4280227357
3.9108737 1.5236415 1.1335211 4279373078
3.689862 1.5690467 1.1087528 4279046685
3.7635 1.5532669 1.14394 4279308579
3.8065717 1.5933422 1.1103026 4279111706
3.9072328 1.5826386 1.1459001 4279373856
3.4851167 1.6477982 1.104265 4279439399
3.5352228 1.6183901 1.1087132 4278587686
3.9186015 1.6006137 1.1223427 4279570717
3.6185603 1.6741832 1.1227655 4279179053
3.6511097 1.6525923 1.1088946 4279177515
3.5868933 1.7191039 1.1125767 4280097847
3.6079512 1.7051768 1.1192527 4280097845
3.7284091 1.7243801 1.1321226 4279836468
3.7628751 1.7274995 1.1177284 4280758593
3.6946566 1.7946353 1.1213455 4280557090
3.7396901 1.7915181 1.1351585 4280360494
3.7742581 1.770268 1.1333375 4279770664
3.6725991 1.8083738 1.1145036 4282263596
3.7625413 1.8271646 1.1170033 4280557353
3.8133473 1.8346491 1.1153281 4280557099
3.9623995 -0.56182158 1.1702991 4288127657
3.8046372 -0.50302362 1.1661385 4288718263
4.0483308 -0.54771626 1.174175 4288060333
4.1638465 -0.51012528 1.1559997 4287928482
2.9982529 -0.46385968 1.1600158 4288458689
3.0582561 -0.45325115 1.1830937 4288589757
3.6802146 -0.45330617 1.1553012 4288455093
3.8811591 -0.47077405 1.1759688 4288061361
3.9191217 -0.46738482 1.1938047 4288520119
4.2444839 -0.47889 1.1569285 4288058782
4.2507071 -0.47860813 1.1996546 4288059294
3.0581555 -0.43319151 1.1627181 4288653249
3.2635422 -0.44224003 1.1758226 4288391356
3.377183 -0.43619797 1.1720247 4288324275
3.573209 -0.4392412 1.1807301 4288127920
3.6151919 -0.44484887 1.1588078 4288454578
3.9169543 -0.44241071 1.1680895 4288388783
3.9897053 -0.42631501 1.1726325 4287994541
4.1731572 -0.42047486 1.1851274 4287992733
4.2749329 -0.43407491 1.1690269 4287665568
4.0897164 -0.38262245 1.1822596 4287994531
4.1411061 -0.36092517 1.1672099 4288124577
4.1660132 -0.37846333 1.1828158 4287598754
4.2893691 -0.37310702 1.192368 4287863457
4.3255224 -0.38138551 1.1615379 4287796891
4.1147809 -0.32442182 1.1777071 4287927461
4.1518879 -0.34979588 1.1649505 4287270817
4.227623 -0.32735661 1.1941121 4288059298
4.2709017 -0.33124882 1.1606214 4287601054
4.0821753 -0.27592784 1.1854317 4287796133
4.128788 -0.26943022 1.159133 4287731362
4.1801853 -0.27708656 1.1846604 4287731877
4.0955272 -0.23638086 1.1755509 4287535009
4.1342292 -0.22608934 1.1770214 4287861414
4.1514745 -0.22630222 1.1640524 4287665058
4.1893196 -0.18374661 1.1819768 4287731109
4.2190661 -0.17306846 1.1700369 4287665827
4.2575469 -0.13042608 1.1613427 4287665830
4.3090277 -0.13830744 1.1944416 4287797665
4.3668919 -0.11190692 1.1765013 4287468194
4.2615395 -0.074578047 1.166729 4287731366
4.3945804 -0.084464073 1.1524276 4286020487
4.4547186 -0.055995248 1.1628039 4279374626
4.4833918 -0.026455475 1.1823958 4279899935
4.2791381 0.029959723 1.179989 4284173138
3.8344998 0.088007674 1.150413 4281216053
4.0342731 0.067394465 1.1971034 4282198316
4.0860505 0.068188861 1.1826077 4282197803
4.1679778 0.069638312 1.1740893 4282329125
3.7838306 0.16114391 1.1634501 4287334557
3.9001265 0.19204175 1.1660898 4287468198
3.9849505 0.22270764 1.1730664 4287862442
4.33004 0.2299798 1.1958296 4288060585
4.072114 0.27458853 1.1666691 4288193976
4.3772721 0.27138171 1.1947863 4288127401
4.4170742 0.29324469 1.182548 4288061866
4.4823318 0.2974785 1.1646855 4287996339
4.0287933 0.33779413 1.1637201 4288191665
4.3701458 0.33846149 1.19296 4288258473
4.4142976 0.32192206 1.167141 4288192174
3.9868491 0.38014746 1.1608586 4288718002
4.0288019 0.37187752 1.1644945 4288259245
4.1962895 0.36135504 1.1974618 4288127661
4.2705917 0.36744046 1.1693072 4288062382
3.9833872 0.43242967 1.1602083 4288653751
3.955822 0.46852797 1.154032 4288916156
3.9648585 0.52216065 1.1562285 4289245637
4.0146947 0.50466275 1.1608794 4288326583
4.120451 0.54690808 1.1813852 4288457406
3.9738679 0.57620585 1.1584197 4289969881
4.0007615 0.57622749 1.1995729 4288980662
4.1733761 0.58184797 1.1636102 4288850619
3.9971769 0.61959916 1.1638361 4289511127
4.0235968 0.62414527 1.1963058 4288850871
4.2874479 0.62837088 1.1993015 4288522676
4.0340204 0.65225947 1.159079 4288323763
4.0723367 0.68597311 1.181108 4288850617
4.3924174 0.6737541 1.1897527 4282533202
4.1247606 0.72236764 1.1659697 4288587699
4.1531496 0.72779965 1.1996017 4288457656
4.4703627 0.71636099 1.1890237 4279966493
4.1786513 0.7600444 1.1779587 4286478212
4.2329454 0.79826987 1.1621304 4279177497
4.5654488 0.77834237 1.1829548 4282657062
4.3612251 0.81637418 1.1829317 4283249195
4.4933209 0.81163579 1.1924896 4281736738
4.528646 0.80259603 1.1838064 4282525471
4.3503137 0.85024256 1.1873847 4280425504
4.410408 0.89160752 1.1712233 4283256440
4.305975 1.0414016 1.1855336 4283642151
4.3334556 1.0777564 1.1758155 4283117097
4.4262056 1.1319766 1.1777084 4282986287
3.9088502 1.1722898 1.1908407 4283314485
4.4883146 1.179567 1.1887157 4282658088
3.9846826 1.220953 1.1873763 4284102450
4.2357464 1.212121 1.1634574 4282458144
4.5424647 1.2410401 1.1827624 4283379237
3.0116749 1.2893115 1.1562141 4281551473
3.0759916 1.2953495 1.1516845 4281881205
4.0104485 1.281709 1.1681563 4281146408
4.1881156 1.2548915 1.1533204 4282393633
4.2631097 1.2636995 1.1977216 4283577641
4.5274725 1.2995778 1.17962 4283115552
2.6525509 1.3398244 1.1615596 4282412188
2.7256913 1.3399084 1.1725948 4281285741
3.1150124 1.3135878 1.1937633 4281686650
3.1847224 1.3207674 1.1901231 4281554810
3.2224436 1.3126154 1.1553781 4281029748
3.3319244 1.3357825 1.1934102 4281095804
3.4187236 1.3457639 1.1559222 4280237664
3.4743412 1.3439163 1.1687422 4280234825
3.5383685 1.3446348 1.1834419 4279970374
4.0233064 1.3257989 1.1716475 4281146150
4.1403222 1.3389437 1.1707575 4282198053
4.1896043 1.3172967 1.1909012 4283182636
4.4729495 1.329446 1.15429 4282525221
4.5053091 1.3404069 1.19058 4282196006
2.6860459 1.3540683 1.1790344 4280765047
2.7889154 1.3524261 1.1798908 4281019737
2.8218188 1.3540777 1.1766362 4281219688
2.883553 1.3544539 1.1821939 4282606997
2.9663432 1.3748704 1.1681212 4281421691
3.0323095 1.3831108 1.1752789 4281094540
3.0671184 1.3821274 1.1755342 4280571528
3.1260784 1.3927041 1.1723204 4280901265
3.1780958 1.3998603 1.1971781 4281560738
3.5151906 1.359558 1.1539156 4279775056
3.6257558 1.365465 1.178548 4279771701
3.6691914 1.394702 1.1629267 4281877854
3.7302976 1.3795334 1.1825471 4278849819
3.8075953 1.3946898 1.1666979 4279176982
3.8677979 1.3898925 1.1661482 4279110927
3.9350367 1.3736172 1.186869 4278717721
4.0199623 1.3835301 1.1703171 4279963933
4.0599661 1.3755246 1.1920009 4279832595
4.1175013 1.3841655 1.1752183 4280949017
4.221612 1.3870499 1.1959175 4280161300
4.2992048 1.3975886 1.181734 4280161564
4.3655457 1.3889747 1.1794932 4280424213
4.4006586 1.3698446 1.186183 4280817955
4.4691091 1.3603311 1.1837943 4281737003
3.1289897 1.4128053 1.1670492 4280701051
3.1836157 1.4160695 1.1775286 4281357954
3.2289839 1.4217467 1.1734469 4282215055
3.2733479 1.43282 1.1808866 4282074983
3.3704972 1.4272354 1.1917467 4280692036
3.9329233 1.4398377 1.1704925 4279964964
3.9839756 1.4319251 1.1858417 4280096289
4.0230165 1.4190564 1.184342 4280357656
4.0779424 1.429491 1.1571733 4280883226
4.1349258 1.4289148 1.1972942 4281869345
4.1741838 1.4138893 1.1578896 4279636503
4.2352014 1.4056436 1.1695292 4279767055
3.3833866 1.4599895 1.162043 4280036667
3.4424615 1.4622908 1.1663238 4280096290
3.4659019 1.4555466 1.1911547 4280359722
3.5437195 1.4818108 1.1812737 4279897888
3.5638366 1.4902749 1.1627593 4279439644
3.6080341 1.4844842 1.1980206 4279046679
3.9265683 1.4766806 1.1813825 4279439901
4.1042004 1.4671094 1.1904049 4281145375
3.6648118 1.5263462 1.1718016 4279112484
3.7394183 1.5394257 1.1825453 4279176477
3.8355625 1.5401449 1.1807058 4279045654
3.8858113 1.5339067 1.1668395 4279176724
3.9260166 1.5258782 1.1636083 4279636251
4.0455618 1.50104 1.1771542 4280161049
3.7372773 1.5640941 1.1571447 4279308831
3.7852156 1.5668818 1.1658814 4279243050
3.878118 1.5813937 1.1678874 4279177760
3.9075081 1.5601336 1.1621218 4279374892
3.9575548 1.5536846 1.1771606 4280030496
3.9991858 -0.56579018 1.2166262 4288192941
4.074183 -0.55035806 1.2057704 4288126894
4.0235476 -0.53048056 1.2446404 4288390070
4.1244531 -0.53072828 1.202443 4288324012
4.1510057 -0.53296787 1.2483008 4288258732
4.2334881 -0.51702452 1.2103512 4288126115
3.9143085 -0.457445 1.2026936 4288192687
4.0432477 -0.45564884 1.2237073 4288781746
3.1362772 -0.4444904 1.213132 4288327105
3.2692857 -0.44271985 1.2211922 4288063933
3.3952751 -0.43827957 1.2231944 4288194997
3.4142578 -0.4409844 1.2074558 4288783541
3.5732667 -0.43898267 1.2162579 4288191415
3.7357855 -0.43524107 1.2342979 4288324019
3.7932789 -0.44245481 1.2156973 4288520369
3.840282 -0.44831595 1.2053574 4288454580
4.0293026 -0.44481245 1.2244713 4288191400
4.0942502 -0.43486217 1.2360495 4288453810
4.1183338 -0.41125038 1.215314 4288388783
4.1662188 -0.41941914 1.2245106 4288058789
4.2213163 -0.40721712 1.2348393 4287928484
4.2797146 -0.42225176 1.2095132 4287797411
4.1728854 -0.37536469 1.2337996 4288059558
4.2314091 -0.36777276 1.2227829 4287928479
4.272665 -0.35750678 1.2170331 4287798431
4.0823545 -0.31620625 1.2127389 4288254887
4.1239786 -0.34683573 1.225312 4287730336
4.184361 -0.32348287 1.2268617 4287862173
4.0417323 -0.27264735 1.2272031 4288059046
4.1377044 -0.29310149 1.2202083 4288124577
4.1817694 -0.29672718 1.2124872 4287665054
4.0866089 -0.23543428 1.2269926 4287928230
4.1334457 -0.22751379 1.2185361 4287927717
4.2297916 -0.21810247 1.2077253 4287732136
4.1793985 -0.1722734 1.2268178 4287993508
4.2257299 -0.1874871 1.2250907 4287927972
4.2689943 -0.17812863 1.2126766 4287862182
4.3114119 -0.1656388 1.2234249 4287666856
4.3288212 -0.12847596 1.2367859 4287928485
4.3659854 -0.11083449 1.2194269 4287666341
3.8231843 -0.060453951 1.246604 4288386986
4.0910282 -0.051227324 1.2414526 4288060585
4.156724 -0.065727979 1.2334903 4287863463
4.2146182 -0.080089673 1.2316308 4288125863
4.269423 -0.053431794 1.2144639 4281745490
4.3024755 -0.081529319 1.2211351 4287402401
4.3522339 -0.08239311 1.2144665 4287927725
4.4139514 -0.073840171 1.204185 4283520359
4.5192785 -0.055418622 1.2039762 4279902001
3.7298548 -0.016892718 1.234638 4288191143
3.7854738 -0.023525789 1.2123861 4288256685
3.927551 -0.023949265 1.2229046 4288321451
4.040009 -0.011181608 1.2244787 4287994029
4.2608576 -0.038743068 1.249807 4287994538
4.3345842 -0.039627589 1.2247136 4287928487
3.7349951 0.013342798 1.2239633 4288124834
3.8646011 0.013881929 1.2074972 4287796648
3.9869273 0.014660779 1.2117987 4287861151
4.2212305 0.023142163 1.2269597 4284899181
4.3242292 0.0027144812 1.2225184 4287664800
4.0086322 0.067173541 1.2172036 4282263606
3.9497976 0.19510813 1.203496 4286808983
4.0753531 0.24200231 1.220559 4288058277
4.299572 0.22878323 1.2185926 4287732642
4.0855618 0.29182455 1.2186641 4288388013
4.3249049 0.27334127 1.2232857 4287995815
4.0561595 0.33414853 1.2162623 4288453035
4.2875733 0.3417182 1.215518 4288454828
4.3203745 0.3159878 1.2221246 4288455080
4.0276279 0.37158316 1.2162679 4288651699
3.9962754 0.44757539 1.2025086 4288652214
4.0123758 0.40080947 1.201755 4288585906
4.0044756 0.52146965 1.2046537 4288914357
4.2309856 0.59134579 1.2028155 4288392117
4.0517879 0.60204029 1.2294513 4288850617
4.0871863 0.67527604 1.2113442 4289113014
4.1299448 0.66909635 1.2484879 4289440953
4.3757281 0.67225748 1.230734 4283191649
4.1815457 0.73323667 1.2336041 4289178551
4.4694176 0.71748084 1.2338455 4280163881
4.2358789 0.77109617 1.2185349 4287531413
4.4278545 0.79994822 1.2103714 4281802529
4.564321 0.77967811 1.2364166 4282198573
4.3527741 0.82190323 1.2165653 4279769634
4.4203129 0.87933791 1.2243872 4281673257
4.4408069 0.92798966 1.2069223 4283182120
4.4751158 0.92065078 1.243812 4283313966
4.3325305 1.0788518 1.2196643 4284233259
4.2281318 1.1248624 1.2457032 4282592297
4.302722 1.1303881 1.2346832 4283248443
4.3930998 1.124487 1.216377 4283969329
4.3005562 1.1587286 1.220016 4283904815
4.4381762 1.1671951 1.2247409 4284036140
3.9717531 1.2173094 1.223021 4283247662
4.2946105 1.2441425 1.2046388 4283772973
4.3273687 1.2100203 1.2261511 4283445296
4.4838362 1.2112095 1.2485447 4283970854
4.5175643 1.2197665 1.2244349 4283576108
4.0365877 1.2634908 1.2160313 4283444018
4.2309756 1.2971241 1.2047479 4283445553
4.2617831 1.2924283 1.2257949 4284035114
4.3237095 1.2726083 1.2493957 4283051562
4.5310378 1.2554083 1.242079 4283379497
3.228734 1.3286293 1.2125002 4281621624
3.2919185 1.3444092 1.2402817 4281228414
3.401017 1.3404686 1.2104518 4280831601
3.4735899 1.344807 1.2043912 4280497233
3.5602958 1.3414435 1.2128673 4279376945
3.6734288 1.3461159 1.2144495 4279046431
3.745436 1.3471466 1.2309804 4278392112
4.0904012 1.3206897 1.2184336 4282853431
4.1684504 1.3484464 1.2047098 4282985772
4.5213265 1.3468062 1.2395908 4282787618
4.5784788 1.3162618 1.2353154 4282985250
2.7792172 1.3621949 1.2278296 4279313497
2.8293097 1.3530654 1.2215236 4279638597
2.8935356 1.3577714 1.2239913 4280695659
2.9263461 1.3601253 1.2349368 4281291642
2.999486 1.3741225 1.2293625 4282077825
3.0135779 1.3805934 1.2038175 4281881215
3.0988882 1.3991946 1.2202647 4281159541
3.130203 1.3792692 1.2206146 4282014861
3.170224 1.3756198 1.2258109 4282283167
3.3693018 1.352948 1.2490176 4280636022
3.7931843 1.3641608 1.2158852 4279243038
3.8602841 1.3705034 1.2132063 4279375136
3.9227133 1.356492 1.2179351 4279308581
4.0050101 1.3575047 1.2220342 4280358933
4.0901752 1.3883712 1.2179414 4281672740
4.1178226 1.3691373 1.2291594 4281539615
4.1681185 1.3651552 1.2235365 4279898909
4.2710476 1.3600771 1.234952 4280095769
4.3339005 1.3652627 1.2328987 4280555805
4.3677387 1.3606164 1.2247899 4281344288
4.4348636 1.3514082 1.238034 4282066477
4.4684701 1.3610888 1.2141188 4281737003
3.1388204 1.4066743 1.2118179 4281226106
3.1721032 1.4110134 1.2112908 4281160574
3.2298498 1.4080102 1.2172339 4281093498
3.2873158 1.4163954 1.225531 4280236905
3.3159842 1.4376547 1.2052904 4285301140
3.370532 1.4387785 1.2363408 4282540169
3.4270456 1.4321358 1.2308208 4282400600
3.4660161 1.4327687 1.2142915 4280228656
4.0765696 1.4244606 1.2271826 4280883234
3.3894038 1.4570522 1.2144853 4282403945
3.4435782 1.463083 1.2240655 4284772244
3.4617476 1.47085 1.2061017 4280101179
3.5341182 1.4779031 1.2141639 4279900199
3.5821314 1.4828134 1.2170501 4279637284
3.9328551 1.4923804 1.23527 4279570724
3.9709167 1.4669781 1.2211193 4279505954
4.0629654 1.4601912 1.2362478 4280555295
4.2412367 1.4593278 1.2497925 4281670943
3.7420447 1.5151017 1.2330352 4279177499
3.7774587 1.5166612 1.2296971 4279110680
3.8129661 1.526719 1.2091508 4279045399
3.8628924 1.5116537 1.2000657 4278717461
3.9285595 1.5128883 1.2220381 4279505437
3.9746041 1.5179164 1.2041938 4279898905
4.0879879 1.5032545 1.2004834 4280030238
4.1304412 1.5051025 1.2240024 4279964703
4.1734109 1.5068562 1.2479187 4279965213
3.6956358 1.550683 1.2210975 4279833898
3.7175772 1.5596359 1.2037171 4279244591
3.8585021 1.5924261 1.2239164 4279047212
3.907506 1.5863794 1.2137275 4279047464
3.9770594 1.5746887 1.222414 4279505955
4.0494399 -0.57179546 1.253528 4288192687
4.1267128 -0.56822628 1.2970858 4288520616
4.1075139 -0.54479223 1.2570829 4288192681
4.2250891 -0.51468873 1.2705487 4288322982
3.2865195 -0.47720155 1.2929975 4288261567
3.3774397 -0.45770183 1.2838925 4288259777
4.0595469 -0.49600977 1.2536715 4288454834
4.1326942 -0.46419621 1.2914617 4288323497
4.1721139 -0.48170847 1.2796851 4288388267
4.2572217 -0.48267108 1.2518125 4288060065
3.4143317 -0.44065565 1.2526281 4288390843
3.4724305 -0.44824079 1.2968858 4288587445
3.6258779 -0.4454006 1.2701486 4288520632
3.7473569 -0.43635815 1.2753237 4288454578
3.8893671 -0.42797077 1.2977486 4288324273
3.9143484 -0.43101075 1.2801962 4288388785
3.9773424 -0.43848717 1.2612928 4288519853
4.0423341 -0.41909567 1.2951329 4288388267
4.1243629 -0.42811272 1.2941252 4288387497
4.1796236 -0.4258393 1.2649812 4288256680
4.2224598 -0.43159324 1.2647591 4288256676
4.0790048 -0.36662951 1.299078 4288126635
4.1130772 -0.37986222 1.2747719 4288060328
4.1888156 -0.36498815 1.2654936 4288059302
4.200171 -0.39158893 1.2616825 4288583336
4.0869837 -0.32516947 1.272758 4288255399
4.1240454 -0.34653783 1.2662433 4288189864
4.1808376 -0.33560938 1.2750554 4287927968
4.04182 -0.27225804 1.2806922 4288321961
4.1654177 -0.28990632 1.2626657 4288256170
4.2262216 -0.28052658 1.2536306 4286875534
3.9895813 -0.20253159 1.2769337 4288387238
4.0156298 -0.22177643 1.2676698 4288321447
4.0955687 -0.20871651 1.2566601 4287994288
4.1748962 -0.22076568 1.2629397 4288059303
4.220397 -0.23366745 1.2982745 4286809230
4.2746372 -0.24656169 1.258832 4287202952
4.3164763 -0.22065407 1.2672815 4287862433
4.0284977 -0.17812982 1.2758511 4288190636
4.1234059 -0.15573303 1.2648556 4287993777
4.1720777 -0.1831388 1.2755771 4288124324
4.3723297 -0.18048187 1.2785962 4287994279
3.9634297 -0.14852132 1.2944579 4283185732
4.074235 -0.11632159 1.2852272 4287400095
4.1294951 -0.14440611 1.2991217 4287266704
4.1826921 -0.11924395 1.2855796 4287664026
4.228611 -0.12693653 1.293323 4288060066
4.2759333 -0.12412404 1.2719676 4287928742
4.3373699 -0.13683501 1.2854227 4287929769
3.8004708 -0.059876889 1.2653556 4287795101
3.8871522 -0.077928171 1.2631137 4287927714
3.9695973 -0.08810395 1.2588084 4288256163
4.0719738 -0.050697699 1.2696211 4287994795
4.1097188 -0.082016788 1.2747068 4288125607
4.2218113 -0.079451621 1.2679772 4288256678
4.3454981 -0.08172816 1.2553365 4288059559
3.7755754 -0.022562113 1.2712376 4288059303
3.7728744 0.014367543 1.2828861 4288059300
4.1190372 0.24771582 1.2802323 4287927718
3.7910509 0.26001018 1.285879 4287465366
4.0551085 0.29900873 1.2645047 4288453551
4.0172558 0.34458312 1.2596501 4288519601
3.9877582 0.39447713 1.2524707 4288717749
4.0145369 0.39775169 1.2985857 4288979892
3.9842966 0.44675937 1.2518204 4288849591
3.790127 0.53576332 1.2838737 4286485944
4.005497 0.52219385 1.2574406 4289111739
3.6989539 0.57219905 1.2527083 4286287020
3.7440393 0.55421019 1.2681195 4286947006
4.0024481 0.56824118 1.2568676 4289439927
3.7323318 0.61431313 1.2637774 4285101968
4.0395975 0.60058069 1.2662603 4289308856
4.0856533 0.64374381 1.2556632 4289244094
4.0761952 0.66061616 1.2891074 4289113791
4.1423488 0.69891959 1.2651521 4289310137
4.1826153 0.73399544 1.2889066 4289506496
4.209949 0.73867887 1.2679777 4289244344
4.2741346 0.77879637 1.2765352 4287926686
4.3855658 0.82879996 1.2744176 4280625719
4.446404 0.87047845 1.2960085 4280294704
4.4762077 0.91626358 1.2834338 4283181611
4.1576214 0.97941923 1.298506 4284626486
3.8971138 1.0224853 1.2967826 4284101950
4.1254964 1.0131814 1.2632608 4284628031
4.0483961 1.0763596 1.2704751 4283379499
4.0739603 1.0969713 1.2634797 4284298802
4.2077842 1.0779248 1.2807879 4284300083
4.0726953 1.1243552 1.2902389 4282327590
4.1574407 1.1057655 1.256626 4283052081
4.2339849 1.1142 1.2863026 4284365612
3.9879506 1.1950154 1.2954848 4281277466
4.0985875 1.1593919 1.2969589 4282326822
4.1266422 1.1533487 1.2767195 4284036148
4.2101369 1.177036 1.269552 4284036661
4.2790604 1.176519 1.2770071 4283642160
4.3189545 1.1964824 1.2749667 4281276961
4.4180074 1.19359 1.2657354 4281933345
3.9846048 1.2480385 1.2938054 4282722854
4.1097136 1.2043846 1.2999772 4281999648
4.1515875 1.202628 1.2830768 4284233788
4.2776117 1.2323985 1.2834159 4283707695
4.3469548 1.2347283 1.2806492 4280949782
4.4132762 1.2381203 1.264523 4281736731
4.0236821 1.2598609 1.2653933 4283511096
4.1042995 1.2861607 1.2989601 4282065442
4.2866983 1.2744348 1.2927595 4283641904
4.3422918 1.2786076 1.2794546 4280883734
4.4405832 1.2923528 1.2697619 4281146648
3.5033393 1.3471497 1.2958524 4279840069
3.5517936 1.3439212 1.2596465 4280035388
3.6028512 1.3471045 1.2724829 4280428361
3.6726356 1.3470557 1.252074 4280563287
3.7325876 1.3435969 1.2664847 4280370527
4.0905795 1.3077451 1.2998381 4282919989
4.109592 1.3285143 1.2830377 4282262058
4.2833028 1.3126144 1.2870899 4283050797
4.3295884 1.3168361 1.2731969 4282000166
4.370244 1.3318877 1.2552549 4280818465
4.4374065 1.3222567 1.2689476 4280687130
4.5428548 1.3065765 1.2595322 4283445025
2.9258294 1.3852224 1.2788028 4280044426
2.9851162 1.3778536 1.274412 4282146702
3.029825 1.3885937 1.2897513 4282343047
3.0920613 1.3962876 1.2696919 4281882752
3.1455884 1.3992552 1.266142 4281226625
3.2441196 1.378639 1.2634121 4281556104
3.2632058 1.3938106 1.2510902 4280697206
3.3129463 1.3735116 1.2751496 4281422966
3.368572 1.3538131 1.283654 4280505204
3.4292917 1.35365 1.2645857 4280832629
3.5028281 1.3581959 1.2596004 4279970632
3.8432949 1.3571122 1.2665938 4280828250
3.9218681 1.357494 1.2580315 4280886574
4.0041475 1.3585269 1.2629447 4281539620
4.0884852 1.3591357 1.2677662 4282263084
4.1821332 1.3637208 1.2781013 4282985763
4.270596 1.3719215 1.2747948 4282459426
4.3189702 1.3544848 1.2820096 4283051557
3.2407386 1.4200958 1.264313 4281950608
3.2946692 1.421484 1.2590412 4280632434
3.3880043 1.4315746 1.2707671 4280432217
3.4397345 1.4341125 1.2745931 4282074729
3.4660912 1.4331028 1.2602317 4281750383
3.5257907 1.4341491 1.2819752 4281613131
3.6091042 1.4435931 1.2885833 4280687156
4.1181107 1.4252208 1.2533575 4281211938
4.1741438 1.4306673 1.2843094 4281080622
4.235415 1.4095498 1.2951741 4282854440
4.2548285 1.4061735 1.2528105 4282590244
3.5200987 1.46611 1.2630863 4280562501
3.5876281 1.4762435 1.25249 4279308836
3.6089852 1.4673105 1.2644926 4280293931
3.6729872 1.4790697 1.2757537 4279899684
3.7331409 1.4860163 1.2678698 4280095760
3.7698944 1.4751838 1.2903292 4279308054
3.8317461 1.499596 1.2562474 4278651927
3.8904064 1.4963723 1.2715474 4279242518
3.93294 1.4927598 1.2873949 4279111453
3.9628766 1.4876695 1.2806129 4279635999
4.0359373 1.4775064 1.2545934 4279899673
4.062963 1.4874772 1.289899 4279834402
4.1320095 1.4711896 1.2846954 4280096288
4.2471342 1.476186 1.2865443 4281344035
3.7177401 1.5353824 1.2531737 4279572273
3.7639105 1.5045233 1.2939628 4279177774
3.9236529 1.5122242 1.2694833 4279177247
3.9925568 1.5088905 1.2582836 4279766554
4.1156592 1.5280259 1.2617159 4279701781
4.1699533 1.5011982 1.2980204 4280685863
4.2183661 1.5091485 1.2726902 4280883737
3.9706945 1.5594041 1.273164 4279112478
3.8825657 1.6026018 1.2829807 4279440950
3.9075034 1.6126252 1.2653334 4279440435
3.9705184 1.6119752 1.2727816 4279309864
4.0095758 1.6011012 1.2854152 4279046699
4.1835799 -0.55040544 1.3110727 4288456374
3.3777368 -0.52432734 1.3290619 4288524732
4.1498713 -0.53162318 1.30212 4288389037
4.1655293 -0.52713108 1.319561 4288192945
3.4725821 -0.47085172 1.342993 4288325050
4.1148615 -0.46133041 1.3209245 4288389027
4.1628757 -0.47585475 1.3169334 4288322731
3.6584694 -0.44926959 1.3178052 4288325304
3.7704201 -0.43895105 1.3080971 4288258482
3.8175075 -0.44443431 1.349664 4288520884
3.9144332 -0.43063375 1.3319899 4288584874
3.9903736 -0.41311938 1.3312682 4288519599
4.0163541 -0.41610628 1.3133726 4288584876
4.089365 -0.40631762 1.3215647 4288191654
4.1522956 -0.40368223 1.3027139 4288255409
4.2314167 -0.42073068 1.3237711 4288520105
4.0422573 -0.37424558 1.3393831 4288322992
4.0782604 -0.38692415 1.3153832 4288256427
4.2329016 -0.37563854 1.3129568 4288584620
4.0420852 -0.32529962 1.3345696 4288519342
4.0690422 -0.32787013 1.3031015 4288059820
4.176404 -0.3279537 1.3023491 4288321957
4.2108836 -0.32331795 1.3149879 4287598231
4.0288973 -0.27094454 1.3298889 4288190888
4.1377501 -0.26497489 1.3140818 4288453546
4.2190475 -0.26934257 1.3234684 4286150786
4.2647367 -0.29977593 1.3129311 4286809225
3.989624 -0.20233946 1.3033338 4287993257
4.0330772 -0.22232765 1.3354502 4287532694
4.0979419 -0.20516811 1.308533 4287664800
4.1269703 -0.23718333 1.330584 4287796649
4.211916 -0.20103593 1.3147857 4287008923
3.989536 -0.17596792 1.303142 4287467685
4.027051 -0.16554223 1.3332803 4286939534
4.0702496 -0.17723006 1.3190246 4287399312
4.1137972 -0.19676884 1.3199311 4287470768
4.2497554 -0.16118565 1.3230822 4287403173
4.3261881 -0.17795938 1.311729 4287731106
3.947073 -0.11261936 1.3041825 4287070097
3.9785118 -0.12232842 1.3231905 4287138713
4.176538 -0.13798031 1.3410227 4286284179
4.2157879 -0.10548205 1.3153112 4288125865
4.2616696 -0.13419317 1.3115658 4288125862
3.8715537 -0.060245372 1.3094293 4287665071
3.9210587 -0.073299691 1.3355975 4287731633
3.9632959 -0.087070964 1.3377265 4286084231
4.1561513 -0.07689102 1.3293169 4288060585
3.8335111 -0.022270996 1.3117261 4287730599
3.8703754 -0.034727994 1.3343643 4287071653
4.1252236 -0.04976102 1.3221385 4287864487
3.8754227 0.17589743 1.340668 4285755769
3.8381734 0.23775844 1.314705 4287269272
3.875273 0.21428016 1.3276019 4285952640
4.0656962 0.22268823 1.3242736 4286610570
3.8318944 0.283472 1.3310509 4284114039
3.8985238 0.27096033 1.3441004 4280888381
3.9713874 0.28919747 1.3386848 4280364101
4.022016 0.29286301 1.3262882 4287795623
4.0563803 0.29066741 1.3000925 4288256679
3.8302932 0.32118493 1.3375132 4288453037
3.8905869 0.33909351 1.3434552 4288518565
3.9929943 0.34345406 1.3448956 4288782770
4.0194025 0.33233202 1.3257971 4288585646
4.0439415 0.35205355 1.3148276 4288716977
4.0397539 0.42071435 1.3316867 4289177275
4.0109324 0.45488325 1.306674 4289308858
3.8621769 0.54583752 1.3338232 4288258241
3.9112272 0.52651215 1.3250288 4287799487
4.0013313 0.50230628 1.3087366 4289374906
3.7669985 0.58261883 1.3006678 4288786121
3.8217533 0.57410634 1.3365425 4288261577
3.9848764 0.55296308 1.3046547 4289440445
4.0017262 0.59527802 1.3093272 4289505978
3.7668734 0.61999345 1.3003958 4288393936
3.825417 0.62960696 1.3459101 4288199653
4.0129066 0.62829667 1.3255095 4289441470
3.8857493 0.677652 1.3411731 4285707746
4.0484314 0.68338352 1.3287227 4289769404
4.1006789 0.70585096 1.308995 4289375677
4.155273 0.729307 1.3094652 4289178816
4.238318 0.77282667 1.3446635 4288782513
4.3550034 0.82348514 1.3318567 4280953656
4.4313521 0.86787331 1.3362432 4280360748
4.3492951 0.90968919 1.3307844 4282591016
4.4223518 0.9151932 1.3099204 4283050798
3.9728756 1.0431373 1.343353 4284692792
4.1839237 1.0147129 1.3042459 4284365372
4.2140841 1.0087607 1.3395467 4283904819
3.8603802 1.0822762 1.3299218 4283184960
3.9706225 1.0690877 1.3166322 4284496696
4.2245026 1.0545847 1.3275299 4284167480
4.2656202 1.0943328 1.3221807 4284299831
3.7881949 1.125055 1.304685 4282921021
3.8602948 1.1078209 1.329736 4283511613
3.9917142 1.142229 1.3094263 4282721831
4.0200639 1.1097859 1.3167329 4282790194
4.2937226 1.1315439 1.3283155 4284365110
3.788069 1.1626576 1.3044115 4282658103
3.9499454 1.1835096 1.3117144 4283642932
4.3192649 1.1834221 1.3338273 4284233013
3.8719256 1.2136191 1.320334 4281540401
3.9592986 1.2401202 1.3145047 4282657569
4.1208282 1.249562 1.3029933 4282588447
4.3457127 1.2361996 1.339538 4284365110
3.9337888 1.2587367 1.3281925 4281211172
3.9847205 1.2746567 1.3189933 4281607209
4.0223093 1.2937241 1.3186115 4283181867
4.3100085 1.2705494 1.3314551 4284364076
3.4199512 1.3392124 1.3092566 4280695643
3.46351 1.3201609 1.3210713 4280892251
4.0330648 1.3230157 1.316762 4281605151
4.0635915 1.3265048 1.3449188 4281279278
4.2476869 1.3031732 1.3072189 4284101423
4.3038368 1.3286341 1.3298736 4283904805
3.0928638 1.3968568 1.3111719 4281295499
3.3951252 1.3777536 1.314261 4281488759
3.624182 1.3566369 1.3151629 4280431959
3.7167983 1.3655856 1.3136683 4280302420
3.7910008 1.3667476 1.3194201 4280893273
3.8424656 1.3580943 1.3059158 4282004801
3.8920197 1.3771753 1.3446213 4282726460
3.9467828 1.3682128 1.3177156 4282395440
4.030314 1.3690909 1.3101275 4281671715
4.0849733 1.3775299 1.3351731 4281670174
4.1291256 1.3723705 1.3282671 4281934373
4.1744428 1.3618988 1.3262992 4283181616
4.2041388 1.3709371 1.3148017 4282721571
4.2565522 1.3538779 1.3216873 4283379239
3.0605669 1.4031154 1.3206931 4281821082
3.1402779 1.418878 1.348358 4281232288
3.1577115 1.4050353 1.3226895 4281753999
3.2417893 1.4208413 1.318646 4281094782
3.296164 1.4225448 1.3363581 4281226115
3.3131661 1.429878 1.308858 4281356410
3.3970544 1.4434247 1.3128582 4280890967
3.4082639 1.4099727 1.3182245 4280566094
3.488235 1.4319582 1.3184079 4280297286
3.5362523 1.4151523 1.3211057 4279441730
3.579078 1.4400969 1.3118236 4280295742
3.6302476 1.4282175 1.3443578 4279242284
3.6852114 1.4371973 1.3403683 4280621615
3.7152941 1.4477957 1.3342382 4280627017
3.7642422 1.4301374 1.3443933 4279833632
3.8111703 1.4476068 1.3359036 4278915606
4.1383224 1.4241096 1.3494617 4281343262
4.1641722 1.4471039 1.3148476 4280948504
4.2167563 1.4173628 1.3255126 4281278762
3.6343234 1.4545039 1.3096583 4279706168
3.6961229 1.45353 1.3197818 4281080106
3.7242241 1.4570806 1.3025504 4279768614
3.7740526 1.4612155 1.3321711 4280360243
3.8266234 1.4814988 1.316993 4279637548
3.8694201 1.4722726 1.3173139 4279701790
3.912642 1.4755255 1.3178196 4279832609
3.9710441 1.48093 1.3262796 4279505443
4.0365877 1.4849204 1.3498743 4281934891
4.0800953 1.4925088 1.3287787 4280357922
4.1355848 1.4654596 1.3489473 4280882719
4.2021017 1.4682728 1.3344771 4280621598
3.9203818 1.5273199 1.3219948 4279439654
4.0481811 1.5028986 1.3126298 4280029728
4.1739802 1.5000397 1.3252945 4279833896
3.8587127 1.5674397 1.3008195 4279244339
3.9077613 1.5612645 1.3175032 4279375144
3.9577684 1.554639 1.3083006 4279177767
3.9835722 1.6174864 1.3165001 4279244339
4.0096407 1.6013912 1.3252736 4279244591
4.206243 -0.55073416 1.3558636 4288454315
4.2746992 -0.57372856 1.3740187 4288718259
3.9748843 -0.50907594 1.386302 4288718777
4.1458955 -0.50354403 1.3552113 4288454312
4.1587243 -0.50405633 1.3989005 4288323499
4.22157 -0.53302252 1.3745022 4288585903
4.2966218 -0.53635913 1.3952038 4288522167
3.4726195 -0.47068453 1.3659633 4287998138
3.5945997 -0.46436849 1.3662491 4288652218
3.7100706 -0.46548393 1.385427 4288913587
3.8061337 -0.46296677 1.393172 4288717231
3.900516 -0.47452709 1.3903404 4288652471
3.9714885 -0.45778349 1.385664 4288717239
4.1008606 -0.45903379 1.3578665 4288257448
4.2086716 -0.485219 1.3765353 4288258483
3.8339891 -0.43791658 1.3885481 4288586164
3.8980165 -0.43677086 1.3898708 4288717748
3.9394989 -0.43329433 1.3665622 4288519851
3.9904165 -0.41292724 1.3576683 4288389037
4.0113134 -0.4128449 1.3944931 4288651185
4.0559444 -0.40844321 1.3735373 4288519335
4.2273512 -0.41499862 1.3727154 4288585644
4.0423298 -0.37843865 1.3750747 4288519601
4.0910115 -0.36633947 1.355386 4288322989
4.2850609 -0.37023246 1.365296 4288584624
3.9901061 -0.30724898 1.3833013 4288715951
4.0161591 -0.32717672 1.3747313 4288388528
4.1788387 -0.33343419 1.3681329 4288256682
4.2246375 -0.32787654 1.370113 4287795104
4.2743783 -0.32012978 1.3802261 4287860635
3.8863506 -0.26057392 1.3876789 4288650412
3.9587531 -0.26543745 1.3832712 4288848041
4.0200377 -0.28253198 1.3906362 4288321704
4.0868111 -0.27376944 1.3934661 4288520623
4.1387911 -0.26423627 1.3679147 4288584618
4.1685438 -0.27421179 1.3832254 4286941074
4.2632689 -0.29803777 1.3825049 4287006085
3.9823537 -0.24119473 1.3901867 4288912814
4.0733509 -0.22691949 1.37866 4288190114
4.1316543 -0.2492767 1.3920536 4287140517
3.9896646 -0.17539147 1.3823423 4286676622
4.0292358 -0.1717881 1.379988 4287204766
4.0671406 -0.19395865 1.3620688 4287533474
4.1222458 -0.15602739 1.3624082 4286482327
3.9830275 -0.13560967 1.3797596 4287860904
4.1049943 -0.12791525 1.3988402 4286546842
4.1607585 -0.12972063 1.3853393 4286350487
3.9785423 -0.089070596 1.3752189 4287995057
4.2138438 -0.095176056 1.3611357 4288126381
3.9305255 -0.021838194 1.3767767 4285886345
4.1807413 -0.049142554 1.3624785 4288258216
3.8756139 0.13778132 1.3794647 4286281094
3.8874695 0.17662206 1.3705498 4283057508
3.8382559 0.23812826 1.3655188 4283060848
3.8760738 0.2294967 1.383848 4282397509
3.9138403 0.2340859 1.3863784 4280950057
3.9674184 0.2328704 1.3717269 4281214274
4.0194726 0.21410294 1.3731624 4284967286
3.7456226 0.28477064 1.36243 4288717233
3.8212142 0.27205881 1.3785796 4285553251
3.8685482 0.27370256 1.374696 4285097593
3.710351 0.31861281 1.3643644 4288914866
3.7539787 0.32234648 1.3529652 4289046197
3.83798 0.31417379 1.3522615 4289176759
3.887038 0.31817833 1.3952529 4289111736
3.9119177 0.3458074 1.3781396 4289045947
3.7748144 0.36170518 1.3715858 4289308345
3.8660462 0.396377 1.3862984 4289374908
3.9201162 0.38053852 1.36619 4288848046
3.9634285 0.38484609 1.3795035 4289243579
4.0424595 0.38797343 1.3586642 4289176506
3.9501762 0.4311592 1.3724008 4289375419
4.0206871 0.41679084 1.3713541 4288453548
4.0032868 0.45455053 1.3570298 4289506489
3.8862212 0.54932207 1.3678391 4288259777
3.9796391 0.52807492 1.3642182 4289177532
4.0133719 0.51349556 1.3863329 4288453558
4.0036182 0.58284593 1.3622779 4289507009
3.8860912 0.60091639 1.3931965 4289771201
4.0289459 0.60021228 1.3825941 4289376193
4.0531244 0.63089705 1.3895458 4289638080
3.9607925 0.69062728 1.3932723 4286170109
4.0508428 0.65718621 1.3624765 4289704895
4.0873866 0.71765345 1.3593293 4289573053
4.2105341 0.76814884 1.3928971 4289375162
4.2817788 0.80989814 1.3841333 4281218119
4.3257189 0.81805468 1.3530855 4280954939
4.2907991 0.89763522 1.3728589 4281999657
4.322494 0.87552077 1.3809997 4282919989
4.3734078 0.87599283 1.3558038 4281935147
4.3200512 0.90366495 1.3520205 4282131243
4.2720094 1.0242022 1.3817606 4283379509
3.9219446 1.0864397 1.3771632 4284696648
4.0226035 1.0836802 1.3571711 4285152058
4.2986269 1.075317 1.3879404 4284035130
3.8842416 1.1405011 1.3635396 4284890701
3.9093182 1.1218717 1.3724954 4284892488
4.0475531 1.1179034 1.3641819 4284956984
4.296174 1.1034305 1.3581278 4283642934
4.3232765 1.1405888 1.3642457 4283838776
3.8841558 1.1662048 1.3633529 4284890963
4.0181918 1.1503199 1.3563421 4285087038
4.3513079 1.1784296 1.3705751 4283576628
3.9215097 1.21628 1.376219 4284629321
4.0133381 1.2236235 1.35543 4284825143
4.3466458 1.222309 1.3693805 4283641389
3.9588404 1.2669212 1.3759663 4283642935
4.0493207 1.2967319 1.3656757 4284890166
4.3168454 1.2740039 1.3771327 4284167728
3.4930034 1.3330665 1.365237 4280238439
3.6010332 1.3492582 1.3586749 4280301136
4.0236769 1.3138961 1.3716395 4281473840
4.1783895 1.3348686 1.3875439 4284497208
4.2104278 1.3160769 1.3953526 4284825923
4.2713566 1.3345021 1.3663604 4283182640
4.3044553 1.3152087 1.3741179 4283905583
3.7400432 1.3757327 1.3580865 4280301652
3.8262823 1.3812625 1.3676604 4282334287
3.9572456 1.3876196 1.3744161 4283841330
4.0294447 1.37012 1.3513157 4282985782
4.0741229 1.366734 1.3783928 4283642675
4.1148815 1.3757596 1.3866383 4283445553
4.1677933 1.3737786 1.3614039 4283183927
4.2370315 1.3534268 1.3727974 4282264357
3.0911338 1.4388151 1.3624556 4282941623
3.1901617 1.4310056 1.3763163 4281821858
3.24263 1.4214377 1.362112 4281617273
3.2787504 1.4263244 1.3797545 4280828784
3.3764129 1.4347577 1.3625456 4280099905
3.4482288 1.4422752 1.3860295 4280757580
3.4863036 1.4188721 1.3600719 4281542490
3.5263355 1.4115372 1.3641425 4279703110
3.5813584 1.4095058 1.3736985 4280100689
3.6303868 1.4044502 1.3806171 4280300903
3.6743402 1.4087759 1.3608971 4280229685
3.7183526 1.4132186 1.3772626 4280628302
3.7873518 1.4138905 1.3778754 4280820800
3.8342812 1.4310501 1.369547 4279177765
3.8592873 1.4274091 1.3657725 4280359466
3.9082787 1.4322975 1.3702377 4281540918
3.9713717 1.4156523 1.392586 4283117624
4.0232968 1.4337829 1.3841404 4281079845
4.0634084 1.4075788 1.3981787 4281211688
4.1463618 1.4220788 1.3993328 4280227367
4.2168012 1.4317237 1.3812423 4281081382
3.4764993 1.4541728 1.3605902 4280034354
3.5489659 1.4607208 1.371744 4280429638
3.6242731 1.4548533 1.3590088 4281090653
3.6793265 1.4649324 1.3880253 4281352554
3.7837379 1.4682511 1.3821951 4282135629
3.869314 1.4621625 1.3560498 4281866794
3.9711342 1.4678789 1.373922 4281409059
4.0101285 1.4688672 1.3528113 4279701542
4.1201854 1.4709611 1.3953072 4281803301
4.2094154 1.4710582 1.3785903 4280687138
4.1740704 1.5004424 1.3806109 4280226844
4.2020073 1.5101957 1.3620174 4280160808
4.2352319 -0.56678271 1.4040492 4288522156
4.3279343 -0.5678516 1.4033909 4288521915
3.9146512 -0.50699461 1.4047182 4288652210
3.9537604 -0.54377097 1.4181609 4289046965
4.1298952 -0.52863395 1.4039698 4288521658
4.1749763 -0.53214866 1.4165921 4288455082
4.2553988 -0.54462326 1.4115801 4288587703
3.6261923 -0.46831426 1.4141726 4288129463
3.7833252 -0.47402939 1.4405084 4288848304
3.8300996 -0.46570522 1.4067436 4288717751
3.8779252 -0.4834953 1.433552 4289111740
3.9356415 -0.46527779 1.4082088 4288389032
4.0931573 -0.45701492 1.4094706 4288389033
4.1168404 -0.49849427 1.4289327 4288324007
4.1600618 -0.47245306 1.4060153 4288521398
3.7345295 -0.43024579 1.4204556 4288388263
3.7656837 -0.40982625 1.4128089 4288520105
3.8391094 -0.44438219 1.4080696 4288585648
3.8731399 -0.42828935 1.424834 4288650928
3.9184346 -0.4067927 1.4251282 4288585901
3.9906125 -0.43881831 1.4238603 4288585395
4.0177073 -0.42273006 1.4298086 4288585385
4.0695772 -0.42101946 1.4384022 4288650419
3.8083127 -0.38933989 1.4370842 4288585385
3.9185123 -0.38828015 1.4214642 4289045420
3.970603 -0.36793661 1.420105 4288847275
4.0423508 -0.36478889 1.4150944 4288650412
4.0710502 -0.38875628 1.4140062 4288519595
4.103014 -0.36604291 1.4119523 4288519853
4.1621447 -0.39905724 1.4137812 4288519601
4.2729869 -0.38684654 1.4080489 4288715692
3.9704413 -0.31117404 1.4142818 4288585134
4.0272017 -0.32906356 1.4123566 4288519345
4.180047 -0.31837201 1.4314137 4288124323
4.2131963 -0.32931018 1.4148321 4288650159
3.8955529 -0.27765456 1.4069901 4288716464
4.0290494 -0.27022249 1.4231931 4287993252
4.131937 -0.26129717 1.446326 4287402916
4.220067 -0.29447725 1.4137795 4287861147
3.9208579 -0.23721838 1.4105737 4288519344
3.9935389 -0.21582521 1.4064267 4288453031
4.0812907 -0.21979016 1.4131414 4287337382
3.9387543 -0.17238367 1.442856 4287864237
3.9767191 -0.17448285 1.4172653 4287139239
4.0297422 -0.19153951 1.4171151 4287597466
4.0677328 -0.16618478 1.4358802 4287137687
3.8886287 -0.13125744 1.4499868 4287669179
3.9302557 -0.12871441 1.4308002 4287406262
3.9766312 -0.14819735 1.4170741 4287535025
4.0149007 -0.10788976 1.4258703 4287403175
4.0687389 -0.12832391 1.413113 4286546580
4.18538 -0.10233119 1.4188817 4287796396
4.2421184 -0.10380277 1.4050653 4287928997
3.8884995 -0.092702307 1.4497064 4288059579
3.9240699 -0.069808096 1.4280279 4286350232
3.9722903 -0.078338064 1.4217476 4287140261
4.0716953 -0.073581412 1.4173641 4287403423
4.2105384 -0.075254813 1.4251406 4287862439
4.2983098 -0.076593779 1.4186749 4288192171
3.9431195 -0.021446105 1.4059652 4285557891
4.0959058 -0.047039021 1.4235663 4287601579
4.2076206 -0.047790322 1.4243927 4288258216
4.2953305 -0.048557363 1.4179118 4288257449
3.8877039 0.13853508 1.4351584 4286743960
3.8385293 0.18783188 1.4294052 4281344307
3.8795779 0.17246827 1.4276414 4280952124
3.9125233 0.17784865 1.4052593 4285427591
3.8268964 0.22530733 1.4248089 4282988360
3.8634138 0.21431483 1.4129556 4280887881
3.9123936 0.21665186 1.4049772 4285231502
3.8382535 0.26387745 1.4161479 4288390329
3.887166 0.29266214 1.4211709 4288521915
3.9245281 0.33421281 1.4215642 4289112508
3.8435085 0.39421767 1.4047862 4289703098
3.9749572 0.36460468 1.4396602 4289178814
3.8896348 0.42476374 1.4061127 4289769147
4.0397778 0.41005644 1.4228321 4288717750
4.0666952 0.43958953 1.4321432 4288388796
3.9450474 0.45707828 1.4098004 4289637567
3.9855022 0.48866916 1.4479923 4289768900
4.0800409 0.48133051 1.4230956 4288323252
3.9856267 0.51918823 1.4253448 4289507263
4.0297027 0.53150451 1.4203355 4289113018
3.9174955 0.56683427 1.4176261 4289508292
4.0433083 0.58935028 1.4130521 4289703103
4.0576868 0.57831895 1.4436842 4289768639
3.9193981 0.62336695 1.4223353 4289574341
4.0794249 0.64886093 1.410398 4289704897
3.9359217 0.66052002 1.4107347 4289705156
4.1136537 0.68652159 1.4248453 4289770177
4.129508 0.72573632 1.4114943 4289311422
4.1579289 0.73119098 1.4467943 4289377224
4.2402143 0.77417248 1.4427636 4289770690
4.2975273 0.81339884 1.430768 4280956752
4.3778925 0.87027073 1.4266298 4281345332
3.8360207 0.94939709 1.4492748 4285416011
4.3509669 0.91087568 1.4172533 4281935142
3.6978798 0.98955673 1.445628 4286403651
3.8748474 1.0175756 1.4187694 4285021505
4.0136657 1.0411381 1.420717 4284299323
3.9456944 1.0899149 1.440513 4284955449
3.9725592 1.074132 1.4213852 4284365894
4.0241556 1.0847808 1.437384 4283317318
4.064364 1.0819023 1.4088638 4283641660
4.3593898 1.0921425 1.4318533 4284889910
3.9344392 1.1031009 1.407516 4283646014
3.9640813 1.1364449 1.4320211 4284563005
4.0491147 1.119011 1.4449311 4284035884
4.101861 1.1474776 1.4198906 4284102963
4.3890338 1.1293044 1.4091849 4284167983
4.4205341 1.1386957 1.4466388 4284694314
3.9342213 1.1681863 1.4070425 4284168262
4.424139 1.1851238 1.4324307 4284495925
3.9590364 1.2279083 1.4155941 4284300356
4.0411186 1.2397643 1.4434291 4284955456
4.0879288 1.2171708 1.4208769 4283970872
4.2790184 1.2497995 1.4412842 4285218873
4.3438501 1.2384067 1.427871 4284825128
4.3765101 1.2471838 1.4059756 4284299056
4.4113874 1.227383 1.4292736 4284429359
4.0108805 1.2836429 1.4338795 4284169293
4.0791035 1.276623 1.4097259 4283774008
4.2514777 1.2853489 1.4198494 4285088055
4.3407426 1.2676597 1.4270747 4285087285
4.0302157 1.3297396 1.4272231 4284037442
4.0898929 1.3240716 1.4040512 4284298554
4.2228303 1.3357307 1.4272019 4284956213
3.5760167 1.3668661 1.4134321 4280895337
3.6223531 1.3588037 1.4018879 4280629333
3.6660209 1.376676 1.4395177 4281419115
3.7682962 1.388238 1.4172884 4281153619
3.8625121 1.3961556 1.4168224 4281870905
3.971524 1.3896543 1.4322913 4282657601
4.0175705 1.3875299 1.4201388 4284103490
4.0847635 1.382489 1.427667 4284101431
4.1157007 1.3605968 1.4114943 4283773502
4.1585078 1.3732625 1.4253082 4284889654
3.2420356 1.4437008 1.4053084 4280573845
3.3145804 1.4424725 1.4197687 4281351272
3.3710747 1.4326788 1.4057019 4279779171
3.4390841 1.438553 1.4173102 4280958565
3.5086546 1.444028 1.4057112 4281218644
3.6524317 1.4131269 1.4252759 4281093761
3.7184329 1.4135772 1.4265401 4281682553
3.7759204 1.4099195 1.411188 4282134859
3.8594136 1.4150089 1.4170102 4281935674
3.933414 1.4156057 1.418275 4282393911
3.9679661 1.4068769 1.4180145 4284040005
4.0448246 1.4469416 1.4101533 4282721838
4.140089 1.415743 1.4094869 4283905082
3.3896275 1.4525019 1.4459487 4282078337
3.5292697 1.4527005 1.4124998 4281021781
3.6355634 1.4723723 1.4291346 4281154139
3.7249887 1.4836521 1.4269264 4281745502
3.8318915 1.4874908 1.4220861 4282987333
3.8946452 1.4721836 1.4021497 4281998627
3.9452999 1.4919018 1.4433625 4282724399
3.9983063 1.4711077 1.4192072 4282066478
4.1375666 1.4524349 1.4044209 4283577394
4.0298014 -0.55323923 1.4794658 4288850115
3.8444488 -0.51498812 1.4594111 4288848300
3.9181023 -0.54895377 1.4801435 4288390068
3.9528143 -0.51775718 1.4561929 4288915644
