# .PCD v0.7 - Point Cloud Data file format
VERSION 0.7
FIELDS x y z
SIZE 4 4 4 
TYPE F F F 
COUNT 1 1 1 
WIDTH 1499
HEIGHT 1
POINTS 1499
DATA ascii
-1.2049406 -5.3125052 1.1037072
-1.1474676 -5.3101544 1.1293409
-1.8062313 -5.251924 1.1220247
-1.4227618 -5.2524805 1.1269393
-1.3611828 -5.2507577 1.1369658
-1.2307034 -5.2931876 1.1022788
-1.1858023 -5.2814088 1.1272148
-0.90893948 -5.2504392 1.1397703
-0.77067381 -5.2746201 1.1388807
-1.2986381 -5.2472301 1.1306958
-1.205289 -5.2062664 1.1348562
-0.82194483 -5.2026868 1.1260388
-1.35542 -5.1591659 1.1497362
-1.2367626 -5.1738701 1.1262496
-0.85974848 -5.1858206 1.1331202
-0.82177913 -5.1866174 1.1453152
-1.4403342 -5.1409812 1.122838
-1.3194798 -5.1382365 1.1422458
-1.2764425 -5.1465688 1.1398907
-0.95485926 -5.1378455 1.1497962
-0.73504555 -5.1183171 1.1355155
-0.91090691 -5.069994 1.1332102
-1.7237548 -5.0105629 1.1009828
-1.4641466 -5.0033889 1.1137621
-1.4428157 -5.0408535 1.103723
-1.18979 -5.0377736 1.1498309
-0.7387234 -5.0323939 1.1324171
-0.54825664 -5.0455976 1.1113292
-1.4840417 -4.9613471 1.1293435
-1.3064625 -4.9638243 1.1362656
-1.2598234 -4.9534693 1.1296504
-1.2232174 -4.9809179 1.1316803
-0.87711036 -4.9605184 1.1233357
-0.77245772 -4.9710069 1.1056021
-1.6998782 -4.9366589 1.1297911
-1.5643559 -4.934629 1.1008507
-1.5146267 -4.9250522 1.1207826
-1.4984732 -4.9082642 1.113353
-1.2080947 -4.908844 1.1446787
-0.81365764 -4.9496093 1.1028984
-0.74093366 -4.9311042 1.1402164
-1.5734066 -4.8965354 1.1476774
-1.4900553 -4.8843899 1.1318083
-1.3384496 -4.8551664 1.1466137
-1.2395954 -4.8638387 1.1384854
-0.90898228 -4.8661838 1.1491644
-0.7634933 -4.8970594 1.1189904
-1.6746161 -4.8204584 1.1381195
-1.6009712 -4.8476152 1.1171297
-1.5239029 -4.8439713 1.1247292
-1.4832933 -4.809824 1.1395161
-1.4241394 -4.8075633 1.1314933
-1.287511 -4.8279109 1.1358281
-0.85975909 -4.849031 1.1279341
-0.77722394 -4.8335056 1.1275761
-0.48964909 -4.8046284 1.1288383
-0.41403726 -4.8286629 1.1459177
-1.6796703 -4.7968192 1.1093727
-1.5192785 -4.7854118 1.1288381
-1.4729011 -4.7867928 1.1307893
-0.81412727 -4.7712069 1.1325221
-0.77571988 -4.7770591 1.1221633
-0.49726516 -4.7819767 1.1062124
-1.6174086 -4.7224512 1.1312096
-1.5538361 -4.7490954 1.1170284
-1.5006521 -4.7288713 1.148711
-1.3663445 -4.712472 1.1380746
-1.2621515 -4.7237945 1.139966
-1.2224289 -4.7328267 1.1377509
-0.49502856 -4.7300553 1.1394472
-1.6051133 -4.6510334 1.1211333
-1.4917552 -4.6566935 1.1190886
-1.3831749 -4.6618176 1.1275077
-1.2077631 -4.6665573 1.1499254
-0.47817424 -4.6502962 1.1128241
-1.6280957 -4.647068 1.1450291
-1.5944724 -4.6210155 1.1473659
-1.4777696 -4.6256742 1.1415386
-1.4381083 -4.6332874 1.1239026
-1.3995837 -4.611382 1.1169685
-1.3379096 -4.6066031 1.1423391
-1.2335482 -4.6082797 1.1400142
-1.5786679 -4.5642848 1.1456704
-1.4746813 -4.5666919 1.1427664
-1.4461116 -4.5504074 1.1352383
-1.2838389 -4.5900416 1.1414661
-0.4798342 -4.5769892 1.1157094
-1.4719073 -4.5100327 1.1443245
-1.3444247 -4.5239935 1.1235887
-1.5973983 -4.4780617 1.1013939
-1.4838171 -4.4774609 1.1275545
-1.4275113 -4.4847202 1.148209
-1.3793232 -4.4866438 1.1168523
-0.47250584 -4.4863706 1.1202506
-1.5878617 -4.4482889 1.1224837
-1.4964442 -4.4111524 1.1254351
-1.3750851 -4.4369078 1.1482475
-1.5668225 -4.3866329 1.134939
-1.4776332 -4.3907037 1.1463568
-1.5261647 -4.3180537 1.114404
-1.475317 -4.32619 1.1141661
-1.494589 -4.2790546 1.1099753
-1.426699 -4.2760439 1.1395477
-1.5142274 -4.2375383 1.1234618
-1.4959534 -4.2266932 1.1189506
-0.36650833 -4.207499 1.1337345
-1.4707516 -4.1859665 1.1202177
-1.4455978 -4.1619668 1.1440446
-1.4597523 -4.1127014 1.1433979
-1.4648434 -4.0975623 1.1125541
-1.444604 -4.0883193 1.1010861
-1.3670652 -4.0597811 1.1057951
-1.4384687 -4.0333872 1.1203772
-1.350364 -4.0068226 1.117648
-1.4262604 -3.9833586 1.1449897
-1.3342905 -3.955811 1.1293457
-0.40634266 -3.9050462 1.1071571
-1.4193754 -3.8500681 1.1111069
-0.58993983 -3.8523061 1.1284761
-0.39979136 -3.8344185 1.1113213
-0.3955583 -3.7791603 1.13095
-0.39138171 -3.7248855 1.1498843
-0.30355307 -3.7083778 1.1192138
-0.29937196 -3.6435885 1.1229956
-0.51845056 -3.5024254 1.1057284
-0.50709718 -3.4953351 1.1386561
-0.45067859 -3.4524851 1.1361589
-0.45174128 -3.4313548 1.111943
-0.4548915 -3.1525676 1.124697
-0.4049176 -3.1611285 1.1296735
-0.44466364 -3.1229429 1.1291445
-0.40390414 -3.0225511 1.1308961
-0.33630645 -3.00071 1.1321404
-0.3563574 -2.9698648 1.1409215
-1.2699983 -2.9317451 1.1225308
-1.2871883 -2.8572352 1.1248194
-1.227685 -2.8243895 1.1291134
-0.31382334 -2.8279848 1.1127371
-1.2269053 -2.7783451 1.1348863
-1.2430413 -2.7283347 1.113397
-1.1826613 -2.7105622 1.1437969
-0.25451761 -2.7061253 1.1494904
-1.2225451 -2.6584749 1.1312822
-1.1656615 -2.6743324 1.1199751
-1.1418495 -2.6774995 1.133164
-0.30692661 -2.6606622 1.1220968
-0.27430192 -2.6833458 1.1214019
-1.2275285 -2.6147087 1.1190453
-1.1602229 -2.6203861 1.1170313
-1.146665 -2.6212473 1.1478698
-0.29327837 -2.6199503 1.1268172
-1.2535107 -2.5761433 1.1020068
-1.2069685 -2.5817106 1.13331
-1.1789291 -2.5730476 1.128763
-1.1473466 -2.578244 1.1383457
-0.27392775 -2.5692344 1.1494528
-1.2213912 -2.5360773 1.1266595
-1.1970515 -2.5340419 1.1264797
-1.134088 -2.5124955 1.1360667
-0.23552084 -2.5339355 1.1177933
-1.2227697 -2.4894106 1.1251718
-1.179515 -2.4776509 1.1305526
-0.20882022 -2.4791903 1.1202328
-1.2196594 -2.4338748 1.1267723
-1.1985832 -2.4429905 1.1158576
-1.122197 -2.429297 1.1230545
-0.18881786 -2.4320631 1.1299028
-1.2203145 -2.3731134 1.1305485
-1.1844801 -2.3822174 1.1098573
-1.112994 -2.3696537 1.1198914
-1.2203455 -2.3172832 1.1256574
-1.1746278 -2.320447 1.1172985
-1.1304777 -2.3162358 1.136378
-1.0832019 -2.3297584 1.1387451
-1.2101599 -2.2788894 1.1103699
-1.1892829 -2.2988477 1.1148539
-1.1319094 -2.269881 1.130426
-0.18603973 -2.2843533 1.1183518
-0.14522545 -2.2623794 1.1160132
-1.1738378 -2.2325768 1.1060024
-1.1151711 -2.2291474 1.1457267
-1.0802449 -2.2054625 1.1428455
-1.0443665 -2.215219 1.1374197
-0.18112054 -2.245743 1.1183211
-1.1604006 -2.1634872 1.1354659
-1.1156898 -2.1759439 1.1041888
-1.0796211 -2.1716931 1.1156509
-1.0057017 -2.1913693 1.1480272
-1.1541165 -2.1383111 1.1059964
-1.1183097 -2.1262379 1.112306
-1.0951762 -2.1482539 1.1127232
-1.0423998 -2.1046333 1.1278129
-0.11201662 -2.1311185 1.1262691
-1.1249714 -2.0933158 1.1492784
-1.0721402 -2.0895214 1.122268
-1.0218127 -2.0791924 1.1240495
-1.1152837 -2.0495744 1.1252835
-1.0674422 -2.029417 1.141645
-1.0114774 -2.024946 1.1261371
-0.96380711 -2.0243859 1.1154436
-0.92692035 -2.010973 1.1158645
-0.11582477 -2.0458102 1.1323719
-0.097007245 -2.0332158 1.1152513
-1.0726607 -1.9729654 1.1261445
-1.0211759 -1.9603645 1.126206
-0.98471016 -1.9679354 1.1269685
-0.10764983 -1.9997267 1.1092665
-0.090801358 -1.9552823 1.1296375
-1.0750263 -1.93885 1.1078758
-1.0152988 -1.9140624 1.1273844
-0.96757895 -1.9300655 1.1478307
-0.084495977 -1.9328216 1.133122
-1.058293 -1.886815 1.1041663
-1.0187678 -1.8762814 1.1218468
-0.96631551 -1.879505 1.1247269
-1.021176 -1.8278172 1.1125807
-0.97303057 -1.8277221 1.1253626
-0.93990129 -1.8330717 1.1471114
-0.056475058 -1.8344454 1.1125321
-0.046228752 -1.8018696 1.1161165
-1.0150583 -1.7546645 1.1171411
-0.97367066 -1.7703947 1.1323185
-0.92847568 -1.7755408 1.1269337
-1.0051737 -1.7117808 1.1155915
-0.96973956 -1.7044132 1.1254991
-0.93566787 -1.7292678 1.1268488
-0.97142768 -1.6523554 1.1226585
-0.9177599 -1.6761847 1.1171566
-0.89047068 -1.6768792 1.1463221
-0.96866894 -1.6210747 1.1172309
-0.91488099 -1.6224507 1.1252375
-0.95417607 -1.5921448 1.1241128
-0.92474586 -1.5770335 1.1348326
-0.91835493 -1.5259919 1.1124829
-0.89614624 -1.5413423 1.1234632
-0.97373652 -1.4738429 1.1279697
-0.92327923 -1.4715197 1.1243012
-0.89170825 -1.4846243 1.1225848
-1.0597978 -1.4017633 1.1109636
-1.0283751 -1.4153241 1.1342447
-0.98475903 -1.4274353 1.1283526
-0.94028932 -1.44444 1.1245884
-1.0730188 -1.3781323 1.123728
-1.0277773 -1.3916169 1.1143131
-1.1204559 -1.3295397 1.1201465
-1.0806208 -1.3304435 1.1303154
-1.1743546 -1.2670938 1.1211981
-1.1405749 -1.282102 1.1230136
-1.0852014 -1.2687664 1.1418958
-2.4386578 -1.2159029 1.1357253
-2.3784351 -1.214366 1.1204461
-2.317529 -1.2080683 1.1189466
-1.2253883 -1.224262 1.1186045
-1.1767366 -1.2203934 1.1262386
-1.1264114 -1.2375106 1.1062936
-2.8039768 -1.1751924 1.1328816
-2.7242777 -1.1631469 1.1055652
-2.6736119 -1.174684 1.1106328
-2.6283722 -1.1635407 1.118399
-2.5760019 -1.1569148 1.1308382
-2.5413318 -1.1666675 1.1431954
-2.4721169 -1.1703368 1.1474069
-2.4247499 -1.1750402 1.1301352
-2.3739324 -1.1714587 1.123116
-2.3167984 -1.1714721 1.1222095
-2.2751195 -1.1764022 1.1324759
-2.2248845 -1.1699622 1.1238339
-2.1620421 -1.1736279 1.1210778
-2.1415963 -1.1652781 1.1079441
-2.0849335 -1.1604971 1.124115
-1.2584321 -1.190511 1.1439794
-1.2179619 -1.1716776 1.1231613
-1.1813267 -1.1778005 1.1258541
-1.1314905 -1.17364 1.1420932
-2.9076843 -1.1261945 1.1461344
-2.872937 -1.1190447 1.1250726
-2.8111639 -1.1194741 1.1070653
-2.7128801 -1.125651 1.1331474
-2.6924679 -1.1178737 1.1256368
-2.6156015 -1.1317495 1.1008379
-2.5720747 -1.1469257 1.1485384
-2.4743066 -1.1250629 1.1309413
-2.4242229 -1.1493162 1.1165335
-2.3994172 -1.1252624 1.1422353
-2.3228872 -1.1095161 1.1301718
-2.2837784 -1.1097291 1.1141901
-2.2144134 -1.1020032 1.1130512
-2.1753194 -1.1488812 1.1169745
-2.1291366 -1.1428139 1.1146457
-2.0747583 -1.1432468 1.1317604
-2.0167401 -1.1272808 1.1340027
-1.9476155 -1.1055474 1.1405579
-1.2599467 -1.1152054 1.1172552
-1.2379792 -1.1306306 1.1340684
-1.1997468 -1.128469 1.1302912
-2.9166274 -1.0849426 1.134433
-2.769773 -1.0662154 1.1421964
-2.7374337 -1.0803815 1.1363791
-2.6705353 -1.0678982 1.1258256
-2.6265032 -1.051591 1.1015933
-2.5771205 -1.0639093 1.1143198
-2.5244715 -1.0665808 1.1122192
-2.4788258 -1.0726521 1.116166
-2.4238162 -1.0633115 1.1300102
-2.3763828 -1.0729523 1.1251727
-2.3210938 -1.0745354 1.1189191
-2.2712448 -1.0725902 1.1221473
-2.2316086 -1.0727888 1.12915
-2.1744328 -1.0784576 1.1313272
-2.1232262 -1.0614372 1.1177765
-1.8598448 -1.0504928 1.1087912
-1.3151622 -1.0654497 1.120898
-1.2764821 -1.0689297 1.1206937
-1.2441672 -1.0753845 1.1287469
-2.8679328 -1.0127228 1.1272912
-2.823379 -1.0240724 1.1130127
-2.7754443 -1.0326254 1.1266636
-2.7148926 -1.0335037 1.1158127
-2.6895349 -1.0342015 1.128162
-2.641541 -1.019202 1.1157908
-2.5771542 -1.0399475 1.110211
-2.5093327 -1.0133519 1.1363435
-2.4312758 -1.0267975 1.1304675
-2.3982289 -1.0339942 1.1113573
-2.27879 -1.0400839 1.1146588
-2.1835282 -1.0367118 1.1238549
-1.972857 -1.0198565 1.1269037
-1.7729512 -1.0161445 1.1157374
-1.3237928 -1.0202506 1.1248039
-1.2867832 -1.0345293 1.1221681
-2.8973272 -0.96773231 1.1431241
-2.8041306 -0.96058357 1.108672
-2.7730551 -0.98540002 1.1211283
-2.7302005 -0.9760499 1.1276703
-2.6988518 -0.98008811 1.1484017
-2.6248219 -0.95650971 1.104156
-2.0152993 -0.96959144 1.1349266
-1.9022949 -0.96584475 1.1291972
-1.8946294 -0.97145629 1.128283
-1.6685228 -0.95494872 1.1210214
-1.641482 -0.95223951 1.1127453
-1.3629819 -0.95305455 1.1161858
-1.3322341 -0.9668479 1.1241158
-1.2923285 -0.98535812 1.1455245
-2.76717 -0.92326897 1.1075875
-2.7269816 -0.91947412 1.1288275
-2.6765831 -0.91984272 1.1299641
-2.6363347 -0.90605259 1.1317077
-1.8947028 -0.92328107 1.1018648
-1.8365446 -0.92240345 1.101593
-1.5347595 -0.91208124 1.1274033
-1.4057955 -0.90088212 1.1211567
-1.3682072 -0.92007369 1.1237743
-1.3263247 -0.94044298 1.1439335
-2.80653 -0.87582815 1.1363987
-2.7830496 -0.86652023 1.1108948
-2.7458501 -0.87411803 1.1209755
-2.6905591 -0.8776679 1.1191455
-2.611306 -0.89440477 1.1144342
-1.807807 -0.88836139 1.1200016
-1.7055453 -0.85446036 1.1140904
-1.6848173 -0.88913602 1.1260157
-1.503737 -0.8979013 1.1471524
-1.4221674 -0.87095195 1.1259909
-1.3847649 -0.87641615 1.1251959
-2.8142853 -0.83781201 1.1176134
-2.783005 -0.8190363 1.1109732
-2.7322493 -0.81116438 1.1487916
-2.6755681 -0.82961941 1.1307561
-2.5870304 -0.84636331 1.110219
-1.7176402 -0.84997833 1.1304955
-1.6603634 -0.83710849 1.1336819
-1.6247736 -0.83669698 1.1166646
-1.5651451 -0.81415904 1.135838
-1.5262166 -0.82551116 1.1262448
-1.4711881 -0.82106286 1.1238568
-1.4249821 -0.82750553 1.1272806
-1.3785492 -0.81947011 1.1336706
-2.8242702 -0.76872897 1.147722
-2.7784169 -0.7790575 1.1137389
-2.7371712 -0.77781582 1.1226803
-2.6583774 -0.77402925 1.1199588
-2.5980926 -0.79404891 1.1183635
-1.5734968 -0.79230511 1.1048901
-1.5443287 -0.78573048 1.1382087
-1.4738075 -0.78149259 1.1284692
-1.4357653 -0.79437321 1.130742
-2.864166 -0.71216583 1.1455479
-2.8389556 -0.74512506 1.1378174
-2.7679989 -0.72895342 1.1166762
-2.7210102 -0.72421223 1.1258887
-2.6627531 -0.73180264 1.1320462
-2.6080556 -0.74213076 1.1357172
-2.583194 -0.70157588 1.1020935
-2.8977005 -0.65696311 1.1094686
-2.8215587 -0.67601275 1.1371475
-2.7882636 -0.67368573 1.130435
-2.7219598 -0.67559987 1.1195389
-2.6936693 -0.66781259 1.1400439
-2.6199865 -0.65589738 1.1233799
-2.595521 -0.67548943 1.1298382
-2.9269142 -0.6221056 1.1256559
-2.8349891 -0.62703824 1.1464245
-2.7669771 -0.620305 1.1176742
-2.7335849 -0.62834525 1.1241927
-2.6956809 -0.62445438 1.1022265
-2.6232381 -0.61262715 1.1260356
-2.5982451 -0.60698509 1.1468329
-2.8881271 -0.57148564 1.1215205
-2.8000417 -0.57507837 1.1415286
-2.7768567 -0.5845843 1.1282303
-2.727561 -0.57424986 1.1206142
-2.6744385 -0.59052211 1.1298497
-2.6095963 -0.56945837 1.1255246
-2.5757236 -0.57044458 1.1295211
-2.8742676 -0.52369499 1.1253629
-2.7613125 -0.54343545 1.1210532
-2.7271655 -0.52757496 1.1226833
-2.6736429 -0.52664042 1.1271298
-2.6493177 -0.51133102 1.1124991
-2.5769579 -0.51814395 1.1168211
-3.0803413 -0.45662877 1.141257
-2.9112077 -0.45521066 1.1310952
-2.8614454 -0.46327147 1.1130571
-2.733856 -0.46961567 1.1461993
-2.672574 -0.4772715 1.1182863
-2.626662 -0.4736785 1.1277124
-2.5682788 -0.48353162 1.1296879
-3.1597157 -0.4218069 1.1081334
-3.1137354 -0.43453488 1.1239673
-3.0842128 -0.4341858 1.1233785
-3.0032399 -0.43400535 1.1458278
-2.9739554 -0.42719558 1.1178963
-2.9219062 -0.43787649 1.1185439
-2.7083302 -0.42323941 1.1288528
-2.6784103 -0.41661417 1.1087322
-2.625829 -0.41937539 1.1283982
-2.573133 -0.43912801 1.124766
-3.1236115 -0.38029838 1.1177267
-3.0978174 -0.37437236 1.1304235
-2.7230194 -0.38150859 1.1254711
-2.6861699 -0.37998417 1.1245822
-2.6137145 -0.3710205 1.1336323
-2.5786912 -0.38286769 1.1227112
-3.1204934 -0.32541424 1.1351879
-3.098484 -0.33013704 1.1131496
-2.9594111 -0.303417 1.1216784
-2.8759079 -0.3286804 1.1239514
-2.8295679 -0.31742591 1.1393805
-2.7669153 -0.32973883 1.1233127
-2.7372363 -0.33307287 1.1236551
-2.6666725 -0.33918056 1.1280035
-2.6190894 -0.32678548 1.1304246
-3.1292262 -0.26435059 1.1022782
-3.0728462 -0.27339441 1.1228011
-3.0382996 -0.26692566 1.1154531
-2.9888797 -0.27424204 1.1203829
-2.9245052 -0.29082042 1.1251444
-2.8770688 -0.28333932 1.1480292
-2.8311849 -0.26995125 1.1239319
-2.7755067 -0.27012718 1.1288315
-2.7244473 -0.27791411 1.1359015
-2.6659021 -0.26459602 1.1332866
-2.6219532 -0.28209299 1.1318216
-2.5805609 -0.27504355 1.1124055
-3.3828888 -0.21648011 1.1001704
-3.3194146 -0.21380387 1.1221809
-3.256676 -0.22008413 1.1199387
-3.2164831 -0.21035361 1.1240666
-3.1219699 -0.23074231 1.1165938
-3.0792298 -0.22856405 1.1156535
-3.0141957 -0.21120073 1.126097
-2.9764848 -0.22289038 1.1125582
-2.9282603 -0.2160807 1.1175025
-2.8752754 -0.23719613 1.1348578
-2.8190646 -0.21768299 1.1212713
-2.7626328 -0.22561646 1.1139234
-2.7242467 -0.23480438 1.1316408
-2.6713314 -0.24044281 1.135969
-3.4350691 -0.17821476 1.1486121
-3.3423283 -0.16936085 1.1226597
-3.2800369 -0.17498966 1.1192832
-3.2385798 -0.18253875 1.1205846
-3.1852098 -0.183826 1.1302967
-3.1086006 -0.19304824 1.1329702
-3.0892866 -0.180417 1.1223758
-3.016293 -0.17032747 1.1250542
-2.9578414 -0.17724442 1.1226246
-2.9257371 -0.17487571 1.1264185
-2.8802505 -0.18449537 1.1222835
-3.453156 -0.13111652 1.1245241
-3.409409 -0.10264942 1.1058133
-3.3905225 -0.13828796 1.1235625
-3.2882049 -0.1311096 1.1352024
-3.2210083 -0.12067156 1.1423154
-3.1768079 -0.11030868 1.1168828
-3.1093714 -0.12426854 1.111292
-3.0748534 -0.12879801 1.1270233
-3.0293798 -0.12991434 1.1390905
-2.9910913 -0.13050331 1.1224581
-2.9200315 -0.14325243 1.1350582
-3.3753805 -0.072348863 1.1174669
-3.3332257 -0.063334212 1.1142445
-3.2872019 -0.085463971 1.13727
-3.2377841 -0.072633497 1.1405075
-3.1734056 -0.094044946 1.1275512
-3.1330798 -0.073833153 1.1300181
-3.0855732 -0.071874604 1.1269192
-3.0314147 -0.066845022 1.1363822
-3.3727009 -0.0058614835 1.1049261
-3.3056066 -0.027030557 1.1097587
-3.2626767 -0.030445412 1.1302774
-3.2160413 -0.02677167 1.1391218
-3.1613193 -0.045870751 1.1000659
-3.1010115 -0.03164646 1.1077628
-3.0702806 -0.025816675 1.1227877
-2.995537 -0.004080236 1.1259981
-3.3507743 0.017187841 1.1274651
-3.3185248 0.034273632 1.1090677
-3.2720091 0.020341801 1.1305264
-3.2283547 0.037422992 1.1367589
-3.1832213 0.020718001 1.1199911
-3.1009755 0.015935689 1.1162099
-3.0754447 0.023966435 1.1244806
-3.0495918 0.0038054734 1.1378101
-2.993149 0.040029943 1.1334519
-3.3592751 0.071740657 1.120347
-3.3221536 0.077408165 1.14105
-3.2751398 0.064477429 1.109489
-3.2482047 0.085940808 1.1251117
-3.1229384 0.092139855 1.125325
-3.0659363 0.071632139 1.1272475
-3.0329015 0.058619365 1.1479807
-3.3236706 0.12236336 1.1268431
-3.2778831 0.13604905 1.1175718
-3.1283135 0.12345573 1.1406066
-3.0610631 0.11248361 1.1350127
-3.034663 0.1216742 1.1183836
-3.318382 0.17221093 1.1275072
-3.2732353 0.17894058 1.1232009
-3.1343298 0.15588874 1.145035
-3.0771222 0.17564172 1.130492
-3.0170517 0.16158655 1.1289694
-2.9697082 0.15985733 1.1323539
-2.9430952 0.18323734 1.1086531
-3.325707 0.21730037 1.1188728
-3.276588 0.22867265 1.1352863
-3.2380342 0.20543998 1.1230041
-3.063688 0.22686075 1.12561
-2.9617074 0.2279449 1.1278135
-2.9176738 0.21598321 1.1235498
-3.357007 0.25344038 1.1248484
-3.3337746 0.26904243 1.1163812
-3.2773297 0.27911296 1.1320485
-3.2209029 0.28334618 1.1233937
-3.1776943 0.27843183 1.1259677
-3.1281548 0.27704865 1.1388239
-3.050693 0.25097117 1.1151346
-3.0258698 0.28876176 1.1228728
-2.9594197 0.26627582 1.1144385
-2.9426308 0.26799983 1.1217431
-2.8845165 0.281488 1.12985
-3.3000972 0.30756152 1.1147102
-3.2868054 0.33101428 1.1168981
-3.16345 0.31185251 1.1164522
-3.1264541 0.31305808 1.1273756
-3.0795105 0.33496088 1.1244203
-3.0333476 0.32953542 1.1234543
-2.9893055 0.34424031 1.1176244
-2.9219596 0.31285894 1.1071064
-2.8731627 0.33426249 1.1021798
-3.3291972 0.36428845 1.1272262
-3.2834067 0.39470458 1.1354649
-3.1559854 0.37132612 1.1168463
-3.1142273 0.37849477 1.1071373
-3.0747979 0.3791557 1.1175767
-3.0301347 0.38571513 1.1316971
-2.9846973 0.37934756 1.1063938
-2.9133024 0.3693687 1.1156846
-2.8670321 0.37816313 1.1161464
-3.2208319 0.41875923 1.1231818
-3.1764197 0.43686539 1.1240717
-3.1144001 0.4187474 1.1194271
-3.0840502 0.42113408 1.1346037
-3.0229664 0.43650201 1.1217775
-2.9756937 0.42015624 1.1252592
-2.9324517 0.4291001 1.1272148
-2.8531711 0.44445163 1.1322449
-2.8469436 0.41793594 1.1242071
-3.2730782 0.49673718 1.1426494
-3.21066 0.46517274 1.131932
-3.1631033 0.47001553 1.1302066
-3.1015346 0.471771 1.1093984
-3.0252981 0.48371267 1.1203918
-2.9814103 0.4687902 1.1297797
-2.8679047 0.4546392 1.1487387
-2.8460009 0.49539903 1.1414058
-2.7789412 0.49441013 1.1008662
-3.2662582 0.53143525 1.1268064
-3.2092605 0.50797611 1.1404819
-3.1796203 0.51541185 1.1133845
-3.1339042 0.53520405 1.1267678
-3.0616775 0.52362156 1.1244533
-3.0157895 0.52348775 1.1237032
-2.9688768 0.52153736 1.136645
-2.9340792 0.50684768 1.1427715
-2.824285 0.52301741 1.1312063
-3.2776058 0.57166606 1.1331131
-3.2228045 0.57688582 1.1358287
-3.1681499 0.57089692 1.1167711
-3.1256962 0.57851994 1.1200734
-3.0745907 0.5745967 1.1393265
-3.0259328 0.5770539 1.131012
-2.9684348 0.57542765 1.1316291
-2.9349005 0.59212083 1.1163303
-2.8436918 0.56676543 1.1378585
-3.2666686 0.61161494 1.146758
-3.2263515 0.6207968 1.1282355
-3.1650159 0.64164805 1.121294
-3.1161001 0.64352012 1.149761
-3.0620446 0.63666493 1.1088996
-3.0108988 0.62516671 1.1368265
-2.9766572 0.61718571 1.1285151
-2.9188838 0.62699002 1.1303616
-2.8230286 0.62595117 1.1443785
-3.2703266 0.67126203 1.1182835
-3.2101245 0.69341159 1.1105723
-3.1764941 0.67374587 1.135283
-3.131794 0.66720724 1.1175386
-3.0871918 0.68602443 1.1370199
-3.0137081 0.67128104 1.1414472
-2.9708679 0.69097084 1.1062645
-2.9135778 0.67956841 1.131529
-2.8749826 0.67295003 1.1036859
-2.7459254 0.66477507 1.1095221
-3.2111886 0.71546745 1.1127841
-3.1751804 0.7097705 1.1160573
-3.1131372 0.72979671 1.1149446
-3.0694659 0.73217821 1.125424
-3.0307477 0.71957701 1.132437
-2.9762535 0.73123461 1.1287774
-2.9137311 0.72976911 1.1317208
-2.8796377 0.72805929 1.1282867
-2.828058 0.74763942 1.1079022
-2.7739086 0.72169554 1.1261081
-3.0648711 0.76622558 1.1149213
-3.0229571 0.78375959 1.1380453
-2.9107122 0.76848924 1.1347935
-2.868109 0.77414548 1.1118097
-2.8271973 0.77411842 1.1254333
-2.7977822 0.76051366 1.1373305
-2.9731696 0.82948244 1.1397505
-2.8809476 0.81626737 1.1149964
-2.8279181 0.82093549 1.125644
-2.7730951 0.80193555 1.1289709
-2.7293546 0.84785694 1.1061935
-2.9235518 0.87310588 1.1263783
-2.8721943 0.87643653 1.1175804
-2.8348966 0.88350272 1.1345146
-2.7689309 0.87172019 1.1207626
-3.0107207 0.94934964 1.1026988
-2.9192395 0.90350831 1.1332293
-2.8950627 0.92583466 1.1196266
-2.8320031 0.9452486 1.1346301
-2.7802906 0.90184933 1.1331632
-3.0874596 0.98728091 1.1022701
-3.0304115 0.97292703 1.1121991
-2.984689 0.97473502 1.1450059
-2.9312632 0.98419237 1.1117271
-2.883724 0.97311097 1.1249163
-2.8440843 0.99210048 1.1285601
-3.1032741 1.0286224 1.1080909
-3.015919 1.0145364 1.1143064
-2.9809518 1.0269513 1.1171942
-2.9095943 1.0249256 1.1210229
-2.8794029 1.0232165 1.1197779
-2.8341959 1.0326073 1.1218398
-3.081094 1.0694306 1.10519
-3.003859 1.0568513 1.1066681
-2.9212008 1.0671632 1.1188014
-2.8907108 1.0837238 1.1125029
-2.8358786 1.0718441 1.1275083
-2.9570796 1.1452867 1.1196711
-2.9192588 1.1131481 1.1314557
-2.8815007 1.1336004 1.1327314
-2.8277845 1.1139896 1.125268
-2.9593818 1.1975225 1.1290078
-2.9044983 1.1523385 1.1005678
-2.8805196 1.180281 1.1324346
-2.8233964 1.1750908 1.127149
-2.9524059 1.239012 1.1323009
-2.8736145 1.2189314 1.115358
-2.8381021 1.2219721 1.1362789
-2.775506 1.2234807 1.1178788
-2.7290082 1.2499077 1.109718
-3.0020945 1.2893982 1.1350689
-2.9691603 1.2645063 1.1352341
-2.8587987 1.2666847 1.1265103
-2.8298359 1.2796105 1.1284319
-2.7270465 1.2846211 1.1226842
-3.1028714 1.3421404 1.1318865
-3.0628536 1.3372482 1.1470616
-3.0229926 1.3189583 1.1264247
-2.9954631 1.3036556 1.1013298
-2.9362667 1.3130976 1.1105136
-2.8611157 1.3328445 1.1248786
-2.8274093 1.3265233 1.1338953
-2.7789245 1.329517 1.1244893
-2.7390976 1.3212384 1.1180005
-3.1616082 1.3850073 1.1219971
-3.0609186 1.3729211 1.1022676
-3.025871 1.3702509 1.1052287
-2.9745955 1.3720882 1.104979
-2.9350777 1.3660498 1.116709
-2.8712506 1.3705969 1.1165185
-2.8262718 1.368544 1.1407593
-2.7646091 1.3707803 1.1306611
-2.7366247 1.3768413 1.1268933
-3.1773577 1.4379233 1.1365422
-2.9218585 1.4092076 1.106153
-2.8655775 1.409995 1.1302975
-2.8345139 1.4322766 1.1402411
-2.7719367 1.4164686 1.1310596
-2.7285204 1.4191027 1.1388503
-3.1632679 1.4861767 1.1126971
-3.1444132 1.4829388 1.1432545
-2.9182768 1.4817283 1.1120605
-2.8785105 1.476644 1.140282
-2.8234417 1.4739434 1.12746
-2.7784419 1.4576375 1.1483457
-2.7177017 1.4695871 1.1374527
-2.6834698 1.4565598 1.1473374
-3.1049252 1.5017203 1.1034553
-3.0668924 1.5013436 1.1110449
-3.0252068 1.534198 1.1483846
-2.8771775 1.5185915 1.1174517
-2.8355558 1.5256323 1.1228998
-2.7720559 1.5181711 1.1303208
-2.7291136 1.5041523 1.1284274
-2.6828251 1.5283914 1.1433849
-3.0153346 1.5676148 1.1289413
-2.9162145 1.5509546 1.1373346
-2.8737602 1.5657418 1.1222545
-2.8220615 1.5713612 1.1270732
-2.7654076 1.573351 1.1132762
-2.7485507 1.5657095 1.1398878
-2.6668 1.5872997 1.1356711
-3.0873573 1.6497465 1.1021936
-3.0190349 1.6184857 1.1107453
-2.9809456 1.6237139 1.1250113
-2.8648448 1.6152337 1.1099632
-2.8329065 1.6314329 1.1310309
-2.7808771 1.6227192 1.1148813
-2.7404945 1.6212852 1.1471021
-2.6475511 1.6198835 1.1141231
-2.8230722 1.6794782 1.1084164
-2.7716358 1.678903 1.122653
-2.7467155 1.6756241 1.1407211
-2.6559858 1.661114 1.137707
-2.8064866 1.7025663 1.1075077
-2.7643363 1.7256328 1.1231514
-2.7326593 1.721825 1.1245848
-2.6973417 1.7493796 1.1126946
-2.6469326 1.7310081 1.1360866
-2.8584208 1.7519814 1.1041805
-2.8028359 1.7529233 1.1128179
-2.7255242 1.776428 1.1203853
-2.6598096 1.7917356 1.1153376
-2.994246 1.8366957 1.1001332
-2.9148831 1.8089409 1.1126279
-2.8211846 1.815212 1.1245121
-2.7867002 1.8042356 1.1462414
-2.731497 1.8253098 1.1225631
-2.6757846 1.8309581 1.1311989
-2.5121517 1.835351 1.1193008
-2.460546 1.8280362 1.1159813
-2.3667917 1.8231804 1.1051149
-2.1692944 1.838604 1.1211352
-2.1346247 1.8269768 1.135848
-3.0607431 1.8938655 1.1205688
-2.983062 1.8622481 1.1227806
-2.9223258 1.8718104 1.132601
-2.8258901 1.860019 1.1310198
-2.779048 1.8527353 1.125108
-2.7190316 1.8650854 1.1164395
-2.6694856 1.8788255 1.1213061
-2.6401553 1.8786347 1.1409017
-2.5772824 1.856432 1.1250994
-2.4546471 1.8872424 1.1161491
-2.3798347 1.8936603 1.1332965
-2.3248882 1.8922447 1.1243008
-2.2769186 1.8804575 1.1093134
-2.2254531 1.8637377 1.1330097
-2.1796331 1.8743801 1.1278783
-2.124815 1.8784572 1.1249201
-2.0854106 1.8995996 1.1299316
-3.0805159 1.9395573 1.1188397
-2.9764826 1.914135 1.1276577
-2.9100242 1.9249107 1.1363623
-2.8512552 1.9489499 1.1475297
-2.8458514 1.9137909 1.1420393
-2.6699214 1.9290226 1.122892
-2.6446116 1.9294043 1.1319194
-2.564548 1.9352446 1.1282774
-2.5190735 1.9320388 1.1077573
-2.4737275 1.9250613 1.121148
-2.4306219 1.9278694 1.1206816
-2.3750086 1.9180741 1.1043093
-2.3384638 1.9084349 1.1267745
-2.2837698 1.9205631 1.1208024
-2.1588717 1.9454814 1.1068225
-2.1099622 1.9151013 1.1267663
-2.0692878 1.9171587 1.1265991
-2.0365105 1.9344356 1.1284254
-3.073138 1.9823505 1.1112244
-3.0371814 1.9718305 1.1251373
-2.9833717 1.9866952 1.1159496
-2.9280143 1.9781992 1.1224692
-2.8860822 1.9769161 1.1321211
-2.7061715 1.9591833 1.1046016
-2.6705363 1.9744593 1.1270958
-2.615236 1.9794416 1.1355938
-2.5896454 1.9595759 1.1090291
-2.5276577 1.9655119 1.1287276
-2.4325919 1.9776309 1.131475
-2.3762248 1.9752005 1.1329393
-2.3213038 1.9681656 1.1268215
-2.2181342 1.9544381 1.1216464
-2.1156962 1.9601644 1.1297216
-2.0922909 1.9618344 1.1315312
-2.0276861 1.9773216 1.1276175
-2.9987679 2.0197918 1.1010411
-2.6832359 2.0141072 1.1195856
-2.5291116 2.0319519 1.1449869
-2.4860275 2.0245142 1.1132681
-2.4248834 2.0002229 1.1054506
-2.0852334 2.0278971 1.1197739
-2.0311894 2.0231919 1.125236
-1.997265 2.0385523 1.1267375
-1.9348584 2.0484917 1.1357902
-2.6661162 2.0939548 1.1492734
-2.6229389 2.0800943 1.1427741
-2.576582 2.0696838 1.1306424
-2.5445483 2.0709636 1.1028048
-2.0725865 2.0764129 1.1215068
-2.0275478 2.0649164 1.1466095
-1.9633797 2.0765738 1.1200271
-1.9232051 2.0852463 1.1205015
-1.8909476 2.0998707 1.1078938
-2.676239 2.1184425 1.1086769
-2.6021953 2.1032028 1.1097848
-2.0626216 2.1263621 1.1203278
-2.022882 2.1226938 1.1231328
-1.9594191 2.1136394 1.1012889
-1.9207406 2.1353922 1.1122949
-1.876323 2.1254601 1.1254591
-1.8444264 2.1353419 1.1202587
-2.0263124 2.1736732 1.1233253
-1.9682688 2.1632617 1.1059679
-1.9173253 2.1743703 1.1168272
-1.8750308 2.1698518 1.1248665
-1.8430591 2.171483 1.1215398
-2.0332894 2.2179132 1.124409
-1.9801821 2.2174308 1.1314276
-1.9229831 2.2135711 1.1359661
-1.8632641 2.2212925 1.11044
-1.8436744 2.2239094 1.1311247
-1.7067541 2.2401266 1.1215771
-1.9029852 2.2521338 1.1355977
-1.860342 2.2657979 1.126035
-1.8298107 2.2821205 1.1253084
-1.7640595 2.2838168 1.1338086
-1.685403 2.2865484 1.1426898
-1.6473023 2.2758183 1.1440926
-1.9594167 2.34568 1.1485945
-1.9316752 2.3127551 1.1134781
-1.8645188 2.3278942 1.1169775
-1.8219115 2.3251896 1.125218
-1.7780342 2.3249876 1.1095512
-1.7251347 2.3248146 1.1132596
-1.6774155 2.3155077 1.1128039
-1.6166331 2.3470664 1.1126846
-1.5668198 2.315563 1.1071557
-1.8645208 2.3785307 1.1031128
-1.804719 2.3676553 1.1250019
-1.7669777 2.3701756 1.1303674
-1.7274668 2.3785844 1.1233462
-1.6857337 2.3762553 1.12281
-1.6494334 2.3661225 1.1270975
-2.0592318 2.4245081 1.1050725
-1.9725438 2.4198515 1.1354693
-1.9370887 2.4379678 1.1348732
-1.7546101 2.4371138 1.1250699
-1.7395611 2.4254873 1.1092564
-2.0981531 2.4699996 1.1452392
-2.0014603 2.4799602 1.1061829
-1.6960146 2.4609141 1.1039472
-2.0925808 2.5317841 1.1262851
-1.0538841 -5.5846186 1.1739832
-1.0598882 -5.5296345 1.1797624
-1.0772984 -5.4661331 1.1689301
-1.0831773 -5.4137688 1.1748294
-1.026679 -5.4106069 1.1998937
-0.61811805 -5.4036117 1.17536
-0.70759809 -5.3592672 1.1859925
-1.7730287 -5.3310146 1.1779871
-1.6426488 -5.3119645 1.1871061
-1.11263 -5.3412175 1.1632
-1.0439779 -5.34972 1.1892067
-0.73341548 -5.3415995 1.1512892
-1.5803764 -5.2607589 1.1806468
-1.1673125 -5.2523365 1.1506842
-1.1419512 -5.2713532 1.1520907
-1.0608846 -5.2891254 1.1785417
-0.9856481 -5.2557936 1.1944778
-1.776123 -5.2493019 1.1566689
-1.5195403 -5.2118149 1.1746147
-1.4773488 -5.2256784 1.1827092
-1.4296602 -5.204432 1.1656106
-1.0898856 -5.2194633 1.1672055
-0.71859431 -5.2152143 1.1555662
-1.6045991 -5.1859508 1.1906586
-1.3923343 -5.1819539 1.1576847
-1.1523107 -5.1726551 1.1637436
-1.1273413 -5.1913786 1.1651285
-1.019431 -5.1693764 1.1854428
-0.88896608 -5.1982403 1.1736839
-0.79118061 -5.1839533 1.1805233
-0.71593857 -5.1753778 1.1779695
-0.59560943 -5.1553812 1.1942021
-1.736593 -5.1280184 1.1767646
-1.5599116 -5.1393514 1.1832385
-1.4567422 -5.1336594 1.1541131
-1.4355888 -5.1039948 1.1772175
-1.1681041 -5.114192 1.1534032
-1.0679296 -5.1020756 1.1707792
-1.0313227 -5.1295238 1.1728094
-0.83288407 -5.1479669 1.1673347
-0.56369531 -5.1293397 1.1907489
-1.5065793 -5.0941238 1.187556
-1.457441 -5.0853291 1.1782299
-1.3990349 -5.0834875 1.1695168
-1.1045358 -5.0746274 1.1687491
-0.97895813 -5.0841475 1.1707017
-0.92789423 -5.080792 1.1811442
-0.55468905 -5.0772815 1.1639564
-1.4682615 -5.0208068 1.1626801
-1.3520708 -5.0228686 1.152666
-1.1411421 -5.0471778 1.1667192
-1.0965389 -5.0272369 1.1952074
-0.95646042 -5.0165672 1.1704485
-0.93512642 -5.0184941 1.1541046
-0.72397709 -5.0041823 1.1707679
-0.55070186 -5.0284491 1.1998104
-1.7158251 -4.977478 1.1844698
-1.4887005 -4.9683375 1.1548164
-1.1230863 -4.955832 1.1748757
-1.0830512 -4.9644504 1.1725398
-1.0327611 -4.9503398 1.174554
-0.97274327 -4.961555 1.1604333
-0.89869434 -4.9800878 1.1848769
-1.5738367 -4.9016681 1.186451
-1.5227276 -4.9154692 1.1880993
-1.4710675 -4.9368243 1.1554933
-1.4314375 -4.9065671 1.1604424
-1.3829485 -4.9444818 1.1754189
-1.2874367 -4.9491324 1.1689825
-1.244067 -4.911099 1.1614487
-1.1752927 -4.9222708 1.1634864
-1.1018788 -4.9121099 1.1919862
-1.0315467 -4.9174628 1.1571723
-0.9875617 -4.9288187 1.1613162
-0.91538709 -4.9273281 1.1751864
-0.8656261 -4.9275517 1.1976562
-0.74279845 -4.9156842 1.1813936
-0.69441974 -4.9351525 1.192232
-0.54808575 -4.9311485 1.1717565
-1.6213216 -4.8641315 1.1711969
-1.4688321 -4.8579502 1.1547897
-1.4081855 -4.892303 1.161343
-1.372983 -4.8733373 1.1538625
-1.1856008 -4.8765464 1.1554308
-1.129006 -4.8878775 1.1919229
-1.0636511 -4.8652258 1.1824416
-0.94337618 -4.8775568 1.1604769
-0.86623478 -4.8513436 1.194443
-1.6722503 -4.8149877 1.180301
-1.6322794 -4.8321095 1.1715438
-1.4144388 -4.8028708 1.1726627
-1.3600965 -4.8018718 1.1579349
-1.3352872 -4.8188486 1.1912825
-1.1787766 -4.8307409 1.1682558
-1.1495667 -4.8014283 1.1966933
-1.0808793 -4.8077211 1.1949776
-1.0241201 -4.8166518 1.1757476
-0.98908097 -4.8305321 1.1620528
-0.8713696 -4.8092952 1.1637943
-0.80118859 -4.8100114 1.1893115
-0.41636431 -4.8309808 1.1775119
-1.5534441 -4.7899365 1.1652225
-1.5044703 -4.7714262 1.178304
-1.4628881 -4.7665424 1.1699756
-1.4386634 -4.7847061 1.1713191
-1.362663 -4.7761917 1.1615896
-1.3118985 -4.7500491 1.1507373
-1.2148744 -4.7922506 1.1870139
-1.1857991 -4.7771721 1.17117
-1.1448224 -4.7660432 1.1765275
-1.0080713 -4.7817688 1.1810768
-0.96683931 -4.7737122 1.1746833
-0.93248206 -4.7796388 1.1680735
-0.8856566 -4.7871151 1.1743417
-0.84116697 -4.789248 1.1866879
-0.77882755 -4.7792969 1.1518142
-0.51567531 -4.7587452 1.1907856
-1.6600993 -4.7319479 1.180513
-1.4758792 -4.7126999 1.1598673
-1.1836404 -4.7284265 1.1747944
-1.0624824 -4.7139463 1.1815507
-1.0080696 -4.70818 1.1918797
-0.94482768 -4.7165961 1.186509
-0.88793325 -4.7304072 1.1843188
-0.4846856 -4.7333665 1.157672
-0.40835446 -4.7211952 1.181091
-1.5742322 -4.6947489 1.1756017
-1.5013671 -4.658803 1.1644405
-1.3330815 -4.6938324 1.1772833
-1.1795254 -4.6532073 1.1715686
-1.034808 -4.6875887 1.1822245
-0.97840559 -4.6914196 1.1846464
-0.90887678 -4.67904 1.1788425
-0.82961696 -4.6967125 1.1951464
-0.48174936 -4.6752796 1.1682086
-1.6281135 -4.6410389 1.1795745
-1.5079833 -4.6429386 1.1600096
-1.429332 -4.6029692 1.1599737
-1.3774148 -4.6211281 1.1583289
-1.3369322 -4.6116242 1.1623466
-1.1938586 -4.6034861 1.1620939
-1.0819168 -4.6369715 1.1854298
-1.0167881 -4.620296 1.1921604
-0.96862656 -4.6279697 1.1757245
-0.92582601 -4.6181817 1.1696851
-0.83969814 -4.6162882 1.1776454
-0.65222383 -4.6335816 1.1944321
-0.51398444 -4.6002889 1.1774681
-1.6077305 -4.5825148 1.1876192
-1.5638378 -4.5665765 1.1771717
-1.5269606 -4.5951371 1.1800561
-1.3328587 -4.5577202 1.1674055
-1.2078743 -4.5540023 1.1526369
-1.1975815 -4.5976806 1.1754181
-1.1127135 -4.5907106 1.1771985
-1.0328631 -4.5629177 1.197567
-0.97444844 -4.5710545 1.1709834
-0.93219113 -4.5749149 1.1693749
-0.88273668 -4.5863552 1.1861956
-0.61778319 -4.5814104 1.1793348
-0.56981158 -4.5712953 1.173804
-0.47327352 -4.5955715 1.1829203
-1.5820926 -4.505475 1.1787374
-1.4763395 -4.5386457 1.1637774
-1.4180864 -4.5133014 1.1670188
-1.3671216 -4.5338464 1.1761286
-1.3475547 -4.526247 1.1534561
-1.2560152 -4.5308967 1.1528603
-1.1765401 -4.5191135 1.176573
-1.1345923 -4.5442781 1.1660545
-1.0575397 -4.5284624 1.1886343
-1.0270351 -4.5486827 1.1841986
-0.90561759 -4.5019784 1.1778029
-0.63636947 -4.5064511 1.1888521
-0.51809585 -4.5024424 1.1800427
-0.39438185 -4.5480881 1.1670223
-1.5657583 -4.4901943 1.174567
-1.4733597 -4.4692245 1.1743655
-1.4424217 -4.45608 1.1569895
-1.3349487 -4.4630775 1.1737523
-1.2327394 -4.4630075 1.1619605
-1.1679566 -4.4640207 1.1711593
-1.0852858 -4.4685731 1.172497
-1.0303164 -4.4844055 1.1785848
-0.96896571 -4.4690771 1.1736459
-0.93095672 -4.4888177 1.1761402
-0.87692487 -4.4855132 1.1994007
-0.60319436 -4.4582453 1.1744583
-0.56672335 -4.4771872 1.1768517
-1.5514328 -4.4160018 1.1821283
-1.5105979 -4.4454474 1.1728292
-1.4729679 -4.4264874 1.1659706
-1.4465094 -4.4402294 1.1677067
-1.3589454 -4.4060788 1.1635435
-1.3497865 -4.4172492 1.1848156
-1.2952099 -4.4315996 1.1798719
-1.223228 -4.4197884 1.1775539
-1.1805823 -4.4335485 1.1756834
-1.1315262 -4.446043 1.1727566
-1.071444 -4.4352398 1.1812636
-0.97554833 -4.4373908 1.1938229
-0.89558315 -4.4407678 1.1892991
-0.62591422 -4.4172421 1.1919312
-0.53708959 -4.4165869 1.1986936
-0.47757936 -4.4256306 1.1764668
-0.41527203 -4.4180779 1.18917
-1.5514517 -4.393548 1.1644819
-1.5145204 -4.3664017 1.1539154
-1.4795847 -4.3542328 1.1864545
-1.4187589 -4.3687344 1.1848414
-1.3808935 -4.3808212 1.1654037
-1.3212304 -4.3645191 1.1763546
-1.1168211 -4.3894825 1.1945671
-1.0205222 -4.3758788 1.1811
-0.98621368 -4.3805332 1.1790068
-0.926296 -4.3897605 1.1784065
-0.83063734 -4.3764009 1.1954372
-0.58110213 -4.3984141 1.1927004
-0.45468774 -4.3660231 1.1824434
-0.38128662 -4.3860354 1.1536343
-1.521476 -4.3286295 1.1850038
-1.4951754 -4.3043742 1.1660171
-1.4335893 -4.3357601 1.1895716
-1.3939172 -4.3421516 1.1530221
-1.3342192 -4.3169799 1.1772095
-1.0759133 -4.3475585 1.183377
-1.0160599 -4.3170953 1.1802826
-0.94916171 -4.3110504 1.1880158
-0.84918857 -4.3340235 1.1857494
-0.46213645 -4.3259931 1.1938839
-0.44869655 -4.3397789 1.1727624
-1.4613618 -4.2524314 1.186662
-1.3675835 -4.2640371 1.1709592
-0.98767543 -4.2831478 1.1878536
-0.93042517 -4.2747102 1.1856078
-0.86741138 -4.2918172 1.176083
-0.80138612 -4.2810597 1.1948365
-0.40489683 -4.2957048 1.1838251
-1.4929975 -4.2455378 1.1880101
-1.4125594 -4.2262588 1.1640667
-1.3996692 -4.2372742 1.18291
-1.335804 -4.2157698 1.1886045
-0.97315401 -4.2436213 1.1969028
-0.82868505 -4.2194877 1.1805252
-1.4716666 -4.1854067 1.1915383
-1.4460607 -4.1935868 1.1904445
-1.3716186 -4.1761189 1.1921854
-0.92972827 -4.1986051 1.1822408
-0.88048393 -4.1849785 1.1751165
-0.43373895 -4.1638646 1.1540614
-0.36716166 -4.1563201 1.1997914
-1.2896929 -4.1087799 1.1842759
-0.47083217 -4.1313319 1.1796768
-0.44143263 -4.1242485 1.164608
-0.36147091 -4.1247377 1.1511179
-1.4622289 -4.0789289 1.1689477
-1.4209825 -4.073359 1.1843154
-1.3795695 -4.0784841 1.1827052
-1.3261641 -4.0898385 1.1818823
-0.47790202 -4.0686164 1.1986116
-1.4355761 -4.0330133 1.1747019
-0.43791711 -4.0144649 1.15982
-1.3460822 -3.9847269 1.1766469
-0.43545347 -3.9721489 1.1852067
-1.450525 -3.9300823 1.1604472
-0.57811522 -3.8577433 1.1779387
-0.43428591 -3.8909082 1.1980358
-0.45163763 -3.5137885 1.1890688
-0.52713656 -3.4573572 1.1682719
-0.47132221 -3.4744623 1.1647472
-0.46542764 -3.3773036 1.1827445
-0.39129043 -3.1808772 1.1983894
-0.43017983 -3.1351664 1.1756893
-0.40025061 -3.064338 1.1743342
-0.3383702 -3.0785213 1.1939347
-0.33700579 -3.0306849 1.1563578
-0.34450305 -2.9662094 1.178622
-1.2737095 -2.8323071 1.180779
-1.2464463 -2.8182278 1.1590782
-1.1923374 -2.7536893 1.1503403
-1.2489208 -2.7472856 1.1880572
-1.1499168 -2.7224691 1.1989262
-1.2145886 -2.6716592 1.1749718
-1.1527104 -2.6900463 1.1856134
-1.139744 -2.6866126 1.1624715
-0.27773765 -2.6673267 1.1621524
-0.24358295 -2.6812577 1.1746076
-1.2753282 -2.6238999 1.1916537
-1.2162573 -2.6319704 1.1903958
-1.1460654 -2.6459885 1.1717715
-0.26570445 -2.6232498 1.1734662
-1.2662301 -2.5554652 1.1621875
-1.2209611 -2.5757649 1.1757413
-1.1905227 -2.5533016 1.1726873
-1.1235155 -2.5680034 1.1649239
-0.26256695 -2.5676067 1.1758732
-1.2109064 -2.5396399 1.1747907
-1.1710298 -2.515908 1.1795778
-1.1129273 -2.504868 1.1535327
-1.092963 -2.518518 1.1871467
-0.2514208 -2.5321739 1.1708764
-0.22640501 -2.5045996 1.187521
-1.2713923 -2.4732785 1.1836601
-1.2260045 -2.4736681 1.168927
-1.1002787 -2.4736974 1.1778091
-1.0911019 -2.4568534 1.1755972
-0.21847838 -2.4792035 1.1682143
-1.2072613 -2.4392273 1.1517836
-1.1768705 -2.4251781 1.1732689
-1.1182491 -2.4333169 1.1648474
-1.0799164 -2.402766 1.1811742
-0.21598607 -2.4331181 1.195338
-0.17972796 -2.4193034 1.1581768
-1.2670377 -2.3997653 1.1754255
-1.2221889 -2.3861542 1.1556368
-1.1174709 -2.3519673 1.1755083
-1.0884328 -2.3540757 1.1637007
-1.2261637 -2.3177776 1.1644683
-1.1723813 -2.3241031 1.1559243
-1.1209505 -2.3200989 1.1782184
-1.0849737 -2.3205967 1.1702439
-1.048404 -2.317234 1.197413
-0.14884324 -2.3067315 1.1805307
-1.1799181 -2.2777314 1.1658967
-1.1288626 -2.291177 1.1566015
-1.0403572 -2.2873394 1.1632954
-0.16589127 -2.2585244 1.1717988
-1.1826005 -2.2240748 1.1874647
-1.1445515 -2.2396398 1.19602
-1.058386 -2.2082028 1.1530042
-1.0341907 -2.2272429 1.1578071
-1.1365197 -2.1607065 1.1942117
-1.0747739 -2.1908462 1.1522869
-1.0289916 -2.1795802 1.1597941
-0.9922806 -2.1794748 1.1687239
-0.13872129 -2.1964278 1.1962769
-1.145564 -2.1288009 1.1601961
-1.0291653 -2.1336589 1.1826068
-0.98286653 -2.1340694 1.1773727
-1.0181514 -2.0698333 1.1819592
-0.97786188 -2.0888779 1.1697773
-0.11026698 -2.0718284 1.1663898
-1.0591868 -2.0480397 1.1939163
-1.0271519 -2.0266285 1.1564444
-0.99007815 -2.0291796 1.1647475
-0.089908622 -2.0336337 1.1705426
-1.0215154 -1.9663838 1.1852162
-0.97128278 -1.9811467 1.1941627
-0.077397332 -1.9576675 1.1726546
-1.0125492 -1.9233757 1.169515
-0.96679831 -1.9434863 1.1732522
-1.0107337 -1.8702965 1.1873513
-0.97598314 -1.8708669 1.1696616
-0.94601983 -1.8724829 1.1760228
-1.0162108 -1.8050947 1.1619779
-0.97567379 -1.8286786 1.1692495
-0.93624181 -1.8365092 1.1726298
-0.97288799 -1.7753745 1.1792898
-0.93601418 -1.7912592 1.1688366
-0.97410232 -1.7260455 1.1663167
-0.92235994 -1.7248834 1.1700248
-0.89651477 -1.722126 1.1764076
-0.95562559 -1.6674467 1.1563662
-0.92786574 -1.6718292 1.1717737
-0.87953776 -1.6811258 1.1925441
-0.92191267 -1.621363 1.1749203
-0.88032418 -1.6256387 1.1694677
-0.9166525 -1.5761917 1.1719308
-0.88888544 -1.576075 1.1785654
-0.92121732 -1.5331533 1.1731262
-0.88570148 -1.5207154 1.1773609
-0.97186196 -1.4694805 1.1895792
-0.91646641 -1.4670365 1.1683095
-0.88154328 -1.4685452 1.1682503
-1.0658156 -1.4086003 1.1731534
-1.0245306 -1.4170238 1.1740754
-0.97650671 -1.4206266 1.1802067
-0.92399997 -1.439258 1.1793697
-0.86489624 -1.4371649 1.1802822
-1.1105989 -1.3698572 1.1847994
-1.0713565 -1.3811792 1.1839255
-1.0403075 -1.3878702 1.1764566
-1.1561002 -1.3170613 1.1585732
-1.1175196 -1.3176174 1.1647549
-1.0759324 -1.3273835 1.1788887
-1.2171628 -1.2558504 1.1602665
-1.1657634 -1.2683896 1.1703157
-1.1326516 -1.2811263 1.1719867
-1.0951133 -1.2922909 1.1973642
-2.8010936 -1.2103484 1.1788414
-2.4890542 -1.2186633 1.1949379
-2.4356682 -1.2377093 1.1939315
-2.394906 -1.2313861 1.1713923
-2.304584 -1.2095339 1.181353
-1.23054 -1.2166197 1.1610931
-1.1784487 -1.2242944 1.1741153
-1.125924 -1.2334764 1.1772377
-2.9090941 -1.1587881 1.1725568
-2.8683584 -1.1750382 1.1592093
-2.8411763 -1.196371 1.1728446
-2.7082913 -1.1612685 1.1630566
-2.6576643 -1.1696163 1.1576674
-2.6231809 -1.1742393 1.176079
-2.5908179 -1.1798656 1.1728842
-2.5268574 -1.1703333 1.1873952
-2.4832737 -1.1617961 1.1926866
-2.3647594 -1.1719608 1.150857
-2.3250849 -1.1698145 1.1818929
-2.2817876 -1.1673611 1.1659399
-2.2207215 -1.1726609 1.1653802
-2.1738238 -1.16583 1.1672883
-2.1246154 -1.1621906 1.1722029
-1.2189684 -1.1752808 1.1784354
-1.1910365 -1.1730299 1.1781135
-1.1283095 -1.1746466 1.155157
-2.9727821 -1.134225 1.1778913
-2.7304316 -1.1187253 1.1836689
-2.6719842 -1.1200509 1.1761967
-2.6320951 -1.1275831 1.151068
-2.5669181 -1.1428125 1.1966212
-2.4786646 -1.1249231 1.1951165
-2.4247439 -1.1353577 1.1733402
-2.3732822 -1.1352289 1.1816033
-2.3155513 -1.1234789 1.1795623
-2.2665696 -1.1095673 1.1707934
-2.2061672 -1.1012219 1.1708195
-2.0768962 -1.1388078 1.1672971
-2.0332139 -1.1170295 1.1697308
-1.9709455 -1.1233265 1.1738055
-1.2640314 -1.1176617 1.1740267
-1.2284603 -1.1251655 1.1704217
-1.1935489 -1.1458502 1.1502274
-3.0061805 -1.0519711 1.1899419
-2.9624927 -1.0634229 1.1733139
-2.7598271 -1.0653245 1.1793851
-2.7246487 -1.0763161 1.1774983
-2.6715901 -1.0755717 1.1743741
-2.6491599 -1.0831219 1.1710458
-2.5709648 -1.0711589 1.1657352
-2.5138049 -1.0645549 1.1692804
-2.4663267 -1.0610805 1.1706296
-2.4308379 -1.0693207 1.1814419
-2.3747098 -1.0703014 1.1724986
-2.3159037 -1.0816946 1.1682091
-2.2757418 -1.0787506 1.1665539
-2.2188008 -1.0775108 1.179468
-2.1601577 -1.0800859 1.1658939
-2.1361179 -1.0631 1.1728827
-1.9784737 -1.0993687 1.1532264
-1.9204491 -1.0951974 1.1848561
-1.8651646 -1.0638382 1.1924452
-1.315016 -1.069266 1.1727467
-1.275378 -1.0797462 1.1761262
-1.2302512 -1.0791038 1.1604477
-2.864856 -1.0185735 1.1906105
-2.8251719 -1.0320923 1.1640733
-2.7683406 -1.0334077 1.1736178
-2.7246232 -1.0296025 1.1795344
-2.6715086 -1.0283955 1.1661947
-2.6364315 -1.0288315 1.1761079
-2.5772474 -1.0330281 1.1649076
-2.5073705 -1.0183477 1.1854057
-2.4530184 -1.0259206 1.1692678
-2.2265642 -1.0378326 1.1669345
-2.1537457 -1.0304381 1.1773936
-1.9874508 -1.0357774 1.1873736
-1.8398151 -1.0481375 1.172219
-1.7336165 -1.0016042 1.1856771
-1.3173747 -1.0198331 1.1748365
-1.2872849 -1.0366602 1.1765141
-1.2272121 -1.0410829 1.1669708
-2.8364263 -0.98448348 1.1732303
-2.7740338 -0.97462136 1.1780369
-2.703877 -0.96348321 1.1811211
-2.6728916 -0.9723922 1.1554136
-2.6292198 -0.97453344 1.1844864
-1.9805753 -0.96119565 1.170015
-1.9211128 -0.97122908 1.1863024
-1.8737152 -0.95532298 1.1518142
-1.6585495 -0.96774668 1.162769
-1.3546436 -0.95157033 1.1645747
-1.3310059 -0.96989089 1.1752853
-1.2897373 -0.98234069 1.176487
-2.9159746 -0.92237473 1.1553552
-2.8100033 -0.94131637 1.1812477
-2.7662597 -0.92752516 1.1773093
-2.7279651 -0.93241185 1.1739451
-2.6712143 -0.92673767 1.1883037
-1.9096168 -0.93959498 1.1546177
-1.8366318 -0.93634343 1.1749593
-1.6128761 -0.94687271 1.1891012
-1.3712472 -0.91651058 1.1671811
-1.3238794 -0.9224419 1.1777577
-2.9205608 -0.86702085 1.1917717
-2.8900118 -0.86534512 1.162096
-2.7850764 -0.88607895 1.1768039
-2.7366316 -0.8771925 1.1794878
-2.6699214 -0.86696523 1.1525764
-2.6445696 -0.88913929 1.192474
-1.6693087 -0.88698679 1.1762375
-1.5948501 -0.85799336 1.1972528
-1.4589452 -0.88035512 1.1982834
-1.4214098 -0.87371498 1.1720915
-1.3886744 -0.88088399 1.1681076
-2.913728 -0.84255373 1.1904774
-2.8714516 -0.81936473 1.1552525
-2.7841916 -0.82869822 1.1709878
-2.7188084 -0.83843899 1.1729876
-2.6775455 -0.81696999 1.1683414
-2.6395309 -0.82761413 1.1800705
-1.67434 -0.83884919 1.1720469
-1.6232653 -0.83044648 1.1822659
-1.5930836 -0.82378328 1.1909893
-1.5380505 -0.80596632 1.1662738
-1.4643167 -0.80694026 1.1735138
-1.4226305 -0.83050841 1.1805829
-1.3771385 -0.82469064 1.1647383
-3.0681341 -0.78342021 1.1644387
-2.8434486 -0.77490366 1.1591775
-2.7700782 -0.78280264 1.1720314
-2.7137434 -0.77444142 1.1867276
-2.6808374 -0.77649575 1.1650635
-2.6422989 -0.77770728 1.1679707
-1.5584159 -0.7953018 1.163296
-1.5160719 -0.78452569 1.1930695
-1.459481 -0.78581917 1.1801895
-1.4158258 -0.79194516 1.1706302
-1.3905452 -0.79232955 1.1819102
-3.0808125 -0.72154808 1.1800257
-2.8685362 -0.71506822 1.1662101
-2.8163636 -0.74221742 1.1814914
-2.7729034 -0.70678616 1.1686201
-2.731323 -0.7330125 1.1641111
-2.686013 -0.71758437 1.168977
-2.6319962 -0.72996777 1.1684555
-3.0955746 -0.66786247 1.1948557
-2.9194298 -0.66291571 1.1902744
-2.815166 -0.65462297 1.1595588
-2.7879288 -0.67645663 1.1682855
-2.7285862 -0.67850763 1.1723549
-2.6809502 -0.68401337 1.1767378
-2.6370707 -0.67498505 1.168605
-2.5784068 -0.65244591 1.1723665
-3.079627 -0.6331408 1.1955996
-2.9237707 -0.62042123 1.1972754
-2.7620523 -0.63039285 1.163601
-2.7192068 -0.62268871 1.1717139
-2.6755891 -0.61718547 1.176116
-2.6477573 -0.63241768 1.1983788
-2.5808077 -0.60557818 1.1687392
-3.0188336 -0.57581288 1.1848679
-2.8684418 -0.56702536 1.1854327
-2.7300353 -0.57768953 1.1668472
-2.6815505 -0.57517874 1.1672653
-2.6371047 -0.57292706 1.1676822
-2.5886338 -0.55486208 1.1664
-3.0107443 -0.53007823 1.1903298
-2.843941 -0.52253836 1.1828995
-2.7591274 -0.53153241 1.1605318
-2.7377565 -0.51044488 1.1752961
-2.6684012 -0.53730023 1.1617376
-2.6395164 -0.53191823 1.171838
-2.5883775 -0.52410519 1.1768321
-3.0416775 -0.48045465 1.1900917
-2.9677997 -0.49346629 1.1626143
-2.806586 -0.48502642 1.1750939
-2.7639313 -0.45630866 1.1643453
-2.6923287 -0.46982571 1.1740508
-2.6207979 -0.4795441 1.1664779
-2.5851371 -0.4807606 1.1667989
-3.156955 -0.40711996 1.1956502
-3.1061716 -0.43472427 1.179508
-3.0325167 -0.44085082 1.1741281
-2.9639921 -0.44704852 1.1501589
-2.822823 -0.4223496 1.1887593
-2.7625601 -0.43739319 1.16634
-2.6811757 -0.43338349 1.1686289
-2.6305425 -0.43828002 1.1813109
-2.5816226 -0.41891241 1.1682585
-2.545377 -0.44650862 1.17514
-3.176316 -0.38711968 1.1827892
-3.1343529 -0.35678285 1.1505258
-3.093226 -0.37670401 1.1666005
-2.8240707 -0.37744874 1.1751305
-2.6923022 -0.37421098 1.1717272
-2.6232562 -0.37614164 1.1740205
-2.5792139 -0.37240505 1.1781441
-3.1066918 -0.32769865 1.1810317
-3.0777268 -0.30909452 1.1891617
-3.0193992 -0.30261093 1.1861087
-2.936739 -0.32107568 1.1725259
-2.8671446 -0.32258582 1.1723889
-2.8333216 -0.32032397 1.1783254
-2.7816358 -0.32289442 1.1874621
-2.7190962 -0.33460659 1.1783721
-2.6737008 -0.32833663 1.1649539
-2.6230063 -0.34600347 1.176542
-2.5790412 -0.31185484 1.1746519
-3.1199737 -0.26844397 1.1507823
-3.0698156 -0.27460703 1.1741351
-3.0176058 -0.26643699 1.1673638
