# .PCD v0.7 - Point Cloud Data file format
VERSION 0.7
FIELDS x y z rgb
SIZE 4 4 4 4
TYPE F F F U
COUNT 1 1 1 1
WIDTH 1116
HEIGHT 1
VIEWPOINT 0 0 0 1 0 0 0
POINTS 1116
DATA ascii
3.3614683 -1.704237 0.27452531 4284368173
3.2841825 -1.6689019 0.26132631 4282335033
3.3119519 -1.675523 0.2826294 4285097565
3.3893597 -1.6737913 0.27645609 4283975731
3.2889178 -1.6346536 0.26305711 4287006082
3.3333628 -1.6112231 0.29080775 4280163099
3.3981907 -1.6259437 0.2805348 4282795068
3.4171453 -1.6202114 0.26693156 4283652956
3.2952311 -1.5889893 0.26536471 4279899925
3.398046 -1.5885801 0.27649808 4287399817
3.4169984 -1.5749998 0.27787057 4283059278
3.2814152 -1.545067 0.27755976 4282004015
3.3747964 -1.5220449 0.27420068 4279899925
3.1947994 -1.4734725 0.26207364 4280887589
3.2304409 -1.4940921 0.29788256 4279637011
3.3426147 -1.4742937 0.27132022 4281808173
3.1807144 -1.4436512 0.29542965 4279573284
3.2827797 -1.4259057 0.27714726 4279903010
3.1107225 -1.3603742 0.29247573 4280755758
3.2362845 -1.3841671 0.27305973 4280035128
3.1086092 -1.3134174 0.29411757 4280689452
3.1780462 -1.3169968 0.27835816 4278784799
3.203167 -1.3486427 0.2806915 4280230444
3.0773931 -1.2733719 0.2501263 4280758585
3.1088891 -1.2674848 0.28507102 4280955200
3.1795051 -1.279855 0.27606899 4279772473
3.202873 -1.263949 0.2906155 4280300607
3.0988541 -1.2499156 0.25268078 4280495926
3.1172311 -1.2139328 0.27170515 4280101184
3.211211 -1.2249757 0.28044865 4280363839
3.3886969 -1.2058245 0.28790283 4287862672
3.1187072 -1.1685486 0.25746736 4281351243
3.1719539 -1.1701586 0.27226147 4283979875
3.238483 -1.176945 0.26869845 4283982701
3.2631698 -1.1675854 0.28704661 4283455835
3.3778493 -1.1996422 0.25236416 4288191903
3.4119401 -1.1776103 0.26151115 4287598995
3.2354145 -1.1490868 0.2712155 4282010709
3.2760618 -1.1420957 0.27449843 4287205007
3.3053377 -1.1307204 0.26582259 4288126622
3.3865879 -1.1394567 0.26374745 4287796629
3.4343128 -1.1187681 0.27577031 4286942347
3.4533391 -1.1250473 0.2772986 4287599256
3.3415389 -1.0999837 0.25393176 4286873988
3.3960733 -1.050032 0.28350392 4287400324
3.424674 -1.0816917 0.27477145 4287072644
3.3211966 -1.0239567 0.2608915 4288387226
3.3684759 -1.0303912 0.26994696 4287334792
3.2867687 -0.97238463 0.27404919 4289177515
3.261117 -0.9324258 0.27166635 4289243313
3.2693975 -0.87544876 0.26650235 4289178803
3.330548 -0.89405465 0.26169652 4289638583
3.3873169 -0.87739956 0.26052278 4288980136
3.4125261 -0.87457645 0.27972305 4288651689
3.4822106 -0.86018133 0.27351132 4285821307
3.2777369 -0.82901949 0.27223471 4289442228
3.3342047 -0.81791621 0.27677241 4289376432
3.3951197 -0.80341429 0.25910759 4288060570
3.4141798 -0.80782014 0.28314567 4288388765
3.4921761 -0.80355352 0.28944206 4284440415
3.5396588 -0.82890403 0.27870256 4286415760
3.57108 -0.80108106 0.28201818 4286547603
3.5546162 -0.75914693 0.2826097 4286087312
3.5247242 -0.72238368 0.28658476 4286218385
3.484992 -0.67160296 0.27250743 4286547348
3.5073156 -0.67830086 0.28536364 4283650663
3.3943725 -0.60149181 0.25752348 4288984254
3.4229577 -0.61786151 0.27113265 4285033597
3.4610858 -0.61867714 0.27822965 4282531668
3.5044596 -0.61222315 0.29698217 4288851639
3.3757534 -0.564511 0.2670854 4285164928
3.4133449 -0.58220512 0.28137571 4281082943
3.4564219 -0.55193794 0.27277511 4283980907
3.3330777 -0.52431178 0.25237167 4288983225
3.5249367 -0.51186538 0.28683394 4285428871
3.431982 -0.48343816 0.2821427 4281015862
3.4625039 -0.47372112 0.26821968 4284704117
3.5295861 -0.47123423 0.25728989 4287996075
3.5820844 -0.48364088 0.29583794 4286481556
3.4190569 -0.42522559 0.25802878 4288917177
3.478395 -0.42184475 0.26938131 4285493633
3.512953 -0.44571158 0.29261625 4286941334
3.4155622 -0.35784641 0.28025383 4286876055
3.4506154 -0.38354027 0.28290093 4281017402
3.3784788 -0.31600192 0.26217434 4285427839
3.4123716 -0.3266263 0.26431239 4286481038
3.4693596 -0.31932113 0.28327394 4286020237
3.3932905 -0.28703752 0.29997972 4291022299
3.4169493 -0.27810499 0.26808178 4285295480
3.5244262 -0.27914724 0.25345677 4288324269
3.5687993 -0.26181561 0.25666577 4287994535
3.6008835 -0.26816252 0.29399234 4287007647
3.3839989 -0.23067749 0.25394365 4289377469
3.4311004 -0.24522287 0.28027388 4281016887
3.4500246 -0.22385038 0.28164816 4281081912
3.5324259 -0.22127959 0.25634795 4287928998
3.4245131 -0.17684887 0.27922353 4281674300
3.4874933 -0.18046784 0.25560141 4287402911
3.392586 -0.10772729 0.27611148 4282793804
3.411675 -0.1309751 0.27783576 4282267719
3.4946923 -0.13182475 0.27347708 4288455856
3.51844 -0.12210682 0.26367837 4287138967
3.3740962 -0.069933005 0.26692167 4285097842
3.4413831 -0.050108701 0.26995939 4286347651
3.4804204 -0.087863058 0.27065438 4285031277
3.3830233 -0.029139021 0.26357475 4286546060
3.4069209 -0.032774031 0.28983513 4288651949
3.3792472 0.021167926 0.2803365 4285491816
3.4301145 0.015653225 0.26687077 4287663507
3.3594623 0.066474661 0.28106481 4283188297
3.4488425 0.0955294 0.27914259 4281147430
3.4809222 0.068503387 0.26811561 4286346875
3.3893754 0.12646671 0.28430009 4283846226
3.4233954 0.12510185 0.27681276 4282794311
3.3726225 0.17164935 0.27600634 4285492594
3.41063 0.16250172 0.29812083 4285095259
3.3630147 0.21809472 0.27629495 4285297281
3.3885989 0.26439017 0.27824652 4281090146
3.4101086 0.29778209 0.28576583 4279708758
3.3941815 0.30460808 0.25282547 4279578713
3.4221084 0.32997951 0.28909272 4281681251
3.2647421 0.37757346 0.26712605 4286874782
3.3558486 0.36961073 0.29358709 4287071123
3.1475487 0.44275594 0.27292538 4292540415
3.1783144 0.41781092 0.26776239 4283730876
3.2136052 0.43046045 0.27881494 4285103021
3.2646306 0.41528201 0.26178327 4287203489
3.335649 0.42416176 0.28957278 4287401122
3.3536863 0.40400437 0.26909429 4287334552
3.4477015 0.41508853 0.29947466 4287005837
3.1307282 0.46112978 0.27106291 4288257450
3.1472986 0.50515968 0.26200959 4286742929
3.1633484 0.50789803 0.29477713 4287401372
3.2381816 0.5407604 0.26938662 4286872462
3.320461 0.54187977 0.25948155 4284897890
3.0087059 0.5945884 0.25259584 4288720578
3.0779831 0.58359277 0.25574082 4288260540
3.1230674 0.57828474 0.26782724 4287601838
3.1616216 0.58253491 0.26125327 4287074722
3.275506 0.57225549 0.26347417 4286019205
2.6847963 0.64690828 0.27523512 4290822857
2.710829 0.63500947 0.26905176 4290165698
2.7903404 0.63510865 0.27773052 4290231489
2.8338709 0.62553847 0.27221102 4289706180
2.8553889 0.62809086 0.27336073 4289706178
2.9404063 0.62579447 0.26141557 4288984002
2.9676371 0.62538433 0.28257519 4289115075
3.0237188 0.6150856 0.2718319 4288720577
3.08289 0.61770505 0.26593533 4288589507
3.1309395 0.61334401 0.28401372 4287733683
3.2130136 0.60074824 0.29876849 4287337641
2.690726 0.66613233 0.27573013 4290229433
2.7224917 0.67492944 0.27667537 4289243565
2.6784234 0.74291921 0.26499909 4289901237
2.7289667 0.71536505 0.27769366 4288848806
2.7740612 0.73696375 0.26408672 4289309869
2.6737351 0.77186209 0.27497524 4289835442
2.7308443 0.77392197 0.28499368 4289704626
2.6801636 0.82053429 0.27939999 4289769906
2.7022421 0.83317602 0.27260342 4289573041
2.7196541 0.87053096 0.27969778 4289573042
2.7546086 0.88334954 0.27779412 4289311155
2.7457952 0.92214662 0.2825892 4289704371
2.7704988 0.91778314 0.27594882 4289376175
2.8048055 0.93725276 0.28318089 4289310637
2.6205363 0.99676877 0.29200149 4289245357
2.6681859 0.98268491 0.29046535 4289310895
2.730082 0.97412455 0.27072775 4289441711
2.7713668 0.97137117 0.27968976 4289245103
2.5918179 1.0237875 0.2816295 4289244848
2.631417 1.0181311 0.26980144 4289376433
2.6657536 1.0134054 0.26169857 4289310640
2.7379005 1.0150679 0.29273564 4289179568
2.6280725 1.0741744 0.27234012 4289244847
2.7286556 1.0583251 0.28137156 4289113774
2.7740591 1.0719523 0.25235808 4288917166
2.6671913 1.1291424 0.27869061 4289179312
2.7458212 1.1202639 0.27523571 4289113774
2.7963967 1.1051759 0.25314796 4289047981
2.6828556 1.1712235 0.27116153 4289244848
2.7233469 1.1749803 0.27967727 4289047982
2.756047 1.1702117 0.26182687 4288916654
2.6766167 1.2486293 0.29653853 4288850603
2.7173123 1.217375 0.28027618 4288916140
2.7583113 1.2326417 0.26000172 4288719788
2.6813111 1.2720655 0.28620344 4288850091
2.7284746 1.2722496 0.26609936 4288915629
2.7613919 1.2873157 0.2509985 4288916142
2.6883848 1.307519 0.28853124 4288784297
2.7071261 1.3317872 0.27375481 4288521896
2.5430961 1.3897929 0.29710695 4284367688
2.5787904 1.3746682 0.28154442 4287996319
2.6207027 1.3642632 0.26446483 4286742907
2.676158 1.363714 0.27780282 4288192411
2.7061579 1.369954 0.29005843 4288324262
2.5786698 1.4030792 0.2727671 4285753453
2.6134105 1.4187511 0.25338352 4287135104
3.0890341 -1.9236885 0.33490717 4286943381
3.0460358 -1.8689923 0.31060398 4288259753
3.0386856 -1.8287411 0.31131613 4289509301
3.1885476 -1.8096275 0.33846051 4283317819
2.9946518 -1.7759531 0.31940728 4289837233
3.0375826 -1.7756357 0.31848353 4287929750
3.0807943 -1.7878749 0.34979177 4285295972
3.1044009 -1.7864904 0.32315004 4282795581
3.1794026 -1.765542 0.32665771 4280229141
3.2064033 -1.7475806 0.33129734 4279834642
3.2558126 -1.7404251 0.31360877 4282528290
3.3302248 -1.7397276 0.31682044 4284634435
3.3748059 -1.7069614 0.32509542 4282529836
3.3808417 -1.6699088 0.31677625 4282463526
3.4100318 -1.675081 0.34260255 4284308559
3.3731611 -1.6151106 0.32455981 4282597179
3.318928 -1.567013 0.31448799 4283058490
3.3890672 -1.5727561 0.32047734 4283780941
3.416996 -1.5520835 0.32286555 4280095254
3.2858889 -1.5254441 0.33596957 4279374607
3.3888605 -1.5168452 0.3200089 4282660915
3.2343154 -1.4735885 0.33283269 4279439647
3.3607268 -1.4819772 0.31721482 4282070582
3.2885134 -1.4171126 0.3318876 4279964183
3.3246386 -1.4437046 0.34660274 4279440398
3.1330287 -1.3955208 0.30397856 4280951080
3.2202539 -1.3556397 0.31411651 4282929501
3.2543728 -1.3807932 0.32828063 4280228131
3.2116213 -1.3202314 0.31303638 4279442217
3.2194479 -1.270283 0.31874853 4280622634
3.2357678 -1.2235491 0.3145906 4281810255
3.4237034 -1.205032 0.30637085 4287927950
3.2536378 -1.1874681 0.31600666 4280889924
3.3965688 -1.1618584 0.32930437 4287599249
3.4346085 -1.1765434 0.30446872 4287467145
3.3414488 -1.142953 0.30186689 4287730065
3.3884838 -1.1353213 0.30405411 4287598735
3.4217446 -1.1255162 0.31631044 4287796369
3.463455 -1.1278695 0.33536226 4287993231
3.4278634 -1.0672978 0.31645155 4287599245
3.340836 -0.9774127 0.30056822 4289309615
3.3805404 -0.90132439 0.31081852 4289441202
3.4176276 -0.88385874 0.31458393 4288784039
3.4629452 -0.85627186 0.31933361 4285953402
3.4709551 -0.82169431 0.32195252 4289114034
3.5218117 -0.82180023 0.3268933 4285953912
3.5733438 -0.82218099 0.34344205 4284374624
3.4849546 -0.76201653 0.32871199 4288587442
3.5311136 -0.77831572 0.32729864 4289706690
3.5521777 -0.78608161 0.32550907 4289508795
3.437413 -0.70489538 0.33480227 4288719280
3.4870777 -0.71755111 0.31499857 4289640642
3.5214674 -0.7287448 0.32616329 4289707718
3.448616 -0.65972114 0.32587582 4288719284
3.4717429 -0.66853982 0.32500145 4289575620
3.5108078 -0.69181216 0.31333703 4289576391
3.4315126 -0.6084435 0.33804232 4288258217
3.4582081 -0.61904401 0.31822121 4289443519
3.4323368 -0.56257582 0.31683338 4289509313
3.4569571 -0.56992519 0.32385808 4289311934
3.5193808 -0.55553949 0.30035597 4289114555
3.4717555 -0.50576735 0.33073848 4289180091
3.5894105 -0.51015937 0.30723256 4289443519
3.4775376 -0.46772045 0.33202058 4288917690
3.5161865 -0.47627652 0.32942826 4289311677
3.4359918 -0.42449012 0.32258022 4288916154
3.4908078 -0.41868803 0.31722796 4289575364
3.5099046 -0.43639579 0.33456302 4289508799
3.4118428 -0.37646517 0.31512362 4288916408
3.3933735 -0.30947337 0.30015573 4290496209
3.4200859 -0.32533976 0.32979536 4290100423
3.4742906 -0.33267471 0.32798228 4290232010
3.5045063 -0.31005821 0.30147201 4288916155
3.4122164 -0.26616675 0.30148375 4290956508
3.4603221 -0.28134707 0.32872123 4290429902
3.5180376 -0.27110782 0.34677929 4291284704
3.5643675 -0.27965203 0.30691925 4289640397
3.4311411 -0.24504456 0.30298573 4290891231
3.4789295 -0.21401635 0.33154398 4292008420
3.5019391 -0.23303932 0.33539504 4294639611
3.5706496 -0.2324563 0.30137008 4290494929
3.4404325 -0.165813 0.34875023 4292995053
3.4848876 -0.16840598 0.31867626 4292206325
3.5235717 -0.17226548 0.31620079 4292600551
3.4433906 -0.11674428 0.33345917 4292535021
3.480926 -0.13161129 0.32388914 4292402928
3.3871243 -0.082454324 0.33236796 4290692555
3.4327271 -0.078341492 0.31709531 4290560977
3.3948662 -0.022284359 0.32843316 4288322204
3.4296966 -0.032479279 0.32690883 4289968065
3.3559728 0.031438231 0.32347226 4285754988
3.4492416 0.0045470009 0.31411493 4288190628
3.4691603 0.027432704 0.3157571 4285754212
3.367147 0.080542356 0.32075134 4286807420
3.4299884 0.079225466 0.32636383 4285490535
3.4690752 0.050377835 0.31557709 4286280298
3.4091263 0.12759769 0.33182457 4285887091
3.3852873 0.18052366 0.32304564 4286414459
3.4170029 0.17059271 0.33634272 4285689712
3.3756888 0.22604525 0.32696593 4284641668
3.3732555 0.28021464 0.33118698 4280432990
3.4200981 0.27832767 0.32212743 4280367712
3.391129 0.31908241 0.34014788 4280892769
3.4290409 0.33362469 0.3210963 4281024098
3.4679508 0.34857434 0.30175194 4280167769
3.3061318 0.38814321 0.30196571 4287269279
3.447952 0.36982146 0.34550783 4281024093
3.4758461 0.38628012 0.32056198 4284573560
3.1796134 0.44743565 0.31782612 4291555069
3.2306576 0.43291086 0.31244725 4287860646
3.3632011 0.42779791 0.3254087 4288123302
3.4677577 0.41768023 0.33566701 4288254107
3.1475461 0.46391189 0.31446433 4292005583
3.2672365 0.49315184 0.33534858 4287663769
3.2785282 0.5392707 0.31637743 4287070091
3.3102047 0.53468847 0.30831325 4286280570
3.1379728 0.59150195 0.32452783 4287997369
3.1799834 0.57501501 0.32188523 4287404206
3.2821679 0.57223713 0.31210905 4286940821
2.681298 0.63925731 0.31579608 4290626249
2.7029626 0.63374329 0.33992925 4290166983
2.7865782 0.63316715 0.32715881 4290231748
2.8423972 0.62589836 0.30963495 4289771974
2.8554258 0.62751591 0.33867607 4289903557
2.9753714 0.62710726 0.31855932 4289246145
3.0284996 0.62506562 0.31186783 4288983233
3.082859 0.61904001 0.32647336 4288720832
3.1229606 0.62592876 0.32114208 4288457663
3.1790092 0.61583984 0.32703716 4287798965
3.229063 0.60391629 0.33234715 4287338157
2.688375 0.67299861 0.3164176 4289572275
2.7206278 0.67337835 0.33391753 4289506737
2.7181151 0.71734494 0.32306877 4289506478
2.6939783 0.77446234 0.31437653 4289770162
2.7340455 0.75843132 0.33448607 4289967027
2.7591217 0.77460432 0.34604946 4290098102
2.6812518 0.81817144 0.31944466 4289639348
2.7142248 0.82682276 0.3255671 4289835700
2.7567878 0.81958878 0.3454203 4289836214
2.6265419 0.88616836 0.34573466 4289769909
2.6782663 0.87448722 0.32310331 4289704373
2.7204034 0.87070704 0.33700624 4289508019
2.631892 0.9227615 0.33742449 4289573555
2.6778297 0.92957395 0.31679493 4289441713
2.709831 0.92240685 0.30275413 4289638578
2.7567694 0.92577326 0.34023046 4289442227
2.6427238 0.97036552 0.34144673 4289441970
2.6590531 0.97961444 0.32119435 4289376690
2.7165103 0.97612321 0.32118818 4289507249
2.76156 0.96170712 0.33627301 4289310898
2.598434 1.0316973 0.30644396 4289376177
2.6246183 1.0268157 0.32924289 4289442227
2.6698771 1.0190552 0.32724059 4289310640
2.6221406 1.0759149 0.32637835 4289310641
2.678021 1.0707475 0.31058693 4289179569
2.6731446 1.1231204 0.33249345 4289245103
2.703934 1.1214308 0.30976522 4289113518
2.7215204 1.1758416 0.31686878 4289179054
2.6717343 1.233917 0.3314901 4288916137
2.7242918 1.2159727 0.32618734 4288982188
2.7618265 1.2148539 0.3431482 4289047469
2.6765819 1.2737223 0.32831368 4288915881
2.7183692 1.3312483 0.32775649 4288719016
2.535836 1.3860999 0.32992193 4284763218
2.5783341 1.3746786 0.31856871 4288127393
2.6219869 1.3672842 0.32854128 4284834391
2.6722271 1.3710128 0.33060169 4288454037
2.7314115 1.3719146 0.32364354 4288258978
3.198173 -1.8171635 0.37312561 4281414950
3.2280674 -1.8123529 0.38806909 4279636501
3.1339548 -1.799109 0.35530019 4281543718
3.2253418 -1.7705735 0.36263365 4280162838
3.2948875 -1.7537819 0.3631804 4282594844
3.3570478 -1.7576306 0.36581284 4284241474
3.4002457 -1.7538272 0.37453562 4284702025
3.392658 -1.7119671 0.36296269 4281805080
3.430254 -1.7186056 0.37185982 4284372287
3.3985188 -1.6777061 0.35581285 4284174391
3.4299307 -1.6750746 0.37520233 4284438856
3.3793545 -1.6127979 0.35969436 4284243011
3.417944 -1.6275351 0.38649687 4283320637
3.3815136 -1.5674391 0.37778956 4282268209
3.3907895 -1.5262296 0.37184256 4284505931
3.342711 -1.4514412 0.37057912 4279440141
3.3796 -1.48428 0.3804394 4279637270
3.5671341 -1.2352865 0.39875823 4286085495
3.5617559 -1.0538585 0.38044786 4286545534
3.5381775 -0.98265725 0.38077027 4286084466
3.4800823 -0.90854502 0.36208928 4286282617
3.5121608 -0.93642044 0.37993038 4285952880
3.4742165 -0.86211777 0.36719817 4285822069
3.615562 -0.85554308 0.39550525 4285559149
3.4459343 -0.80481493 0.36664629 4287798183
3.5734072 -0.82190257 0.37890029 4285361775
3.4689162 -0.76078939 0.3710503 4287864230
3.5322564 -0.78904319 0.36268067 4289507768
3.4407461 -0.71527213 0.3726719 4287271836
3.4620028 -0.71576667 0.37216383 4288259759
3.4497004 -0.66222 0.37235844 4287073947
3.461823 -0.6700201 0.36612827 4287666079
3.4274218 -0.60909879 0.3722024 4286941584
3.4816713 -0.62799013 0.36791819 4288258986
3.4220657 -0.56281132 0.37533826 4287205532
3.471493 -0.58028531 0.36650068 4287534495
3.3828323 -0.50632215 0.39449513 4286218641
3.4592843 -0.52558404 0.36247611 4288259246
3.3908482 -0.45480302 0.3949194 4282486976
3.4069376 -0.49836364 0.36302602 4286942364
3.4653885 -0.4695631 0.37639394 4287140253
3.3975711 -0.42695227 0.36487472 4285959352
3.4319334 -0.41448504 0.39516786 4286157245
3.4708982 -0.41963708 0.36514109 4287863980
3.3907883 -0.37189269 0.36661643 4286683067
3.4102604 -0.36501884 0.37125981 4286092986
3.3935971 -0.33129197 0.37894249 4287140778
3.42203 -0.31157574 0.38191843 4287534757
3.472384 -0.31625649 0.3682254 4289179064
3.47386 -0.28007424 0.38162625 4288258993
3.4701734 -0.22132456 0.36853614 4289311680
3.3929744 -0.16302328 0.3776224 4287862946
3.4205089 -0.18645018 0.36792934 4289836480
3.3377678 -0.10487317 0.38211259 4287470243
3.3743427 -0.12852255 0.37523788 4288192170
3.4177537 -0.1401438 0.37000889 4288718770
3.3376451 -0.071765125 0.38185287 4287600288
3.3803701 -0.084098354 0.36447957 4288191913
3.4040682 -0.056052089 0.37204748 4288784306
3.3741586 -0.031824253 0.37828168 4288455595
3.4318678 -0.027222687 0.37095901 4288060060
3.4239869 0.010272138 0.37706339 4286545017
3.4759319 0.020139782 0.35860208 4287136900
3.3920538 0.087539501 0.37940028 4285886062
3.4147553 0.058460355 0.37420234 4285623143
3.3918877 0.13241115 0.37904826 4283387469
3.4209573 0.12276641 0.37357172 4285689456
3.4252963 0.18663517 0.37817281 4285229419
3.3777621 0.22862801 0.36745441 4285426803
3.4106247 0.20833407 0.38811082 4285950833
3.4646673 0.24719585 0.38158569 4282730847
3.3841431 0.27840528 0.3756305 4281678167
3.5143337 0.28092992 0.39097661 4283454050
3.3911479 0.33056489 0.37375018 4280692051
3.4147272 0.37797725 0.37599751 4284638325
3.5105929 0.39299932 0.39500582 4287335832
3.3632805 0.42814729 0.36990201 4287729311
3.4193506 0.41240296 0.37623876 4287531916
3.3380613 0.53589368 0.37990332 4286018682
3.084471 0.58420259 0.37130451 4287799988
3.1396809 0.56411529 0.37882972 4287075753
3.1546197 0.56679529 0.36010504 4287338927
3.2809172 0.55998147 0.36005521 4287139748
2.68697 0.648148 0.37341538 4291349717
2.7110221 0.63585621 0.37688982 4290692301
2.7640424 0.62962151 0.3752138 4290428872
2.8361819 0.6322943 0.37863338 4290100423
2.8623619 0.62800455 0.35787863 4289771972
2.9103539 0.62978172 0.37887192 4289444035
2.9657657 0.62772477 0.37431055 4289180096
3.0200365 0.62337607 0.37476033 4288851646
3.0755196 0.63747478 0.3771815 4288720062
3.13638 0.62894368 0.3744022 4288391355
3.1960573 0.61930138 0.36054897 4287668151
3.2130873 0.62268203 0.38375443 4287536817
3.2726202 0.61218864 0.38021573 4287075754
3.3351142 0.60125852 0.35447553 4287203475
3.4091218 0.61444104 0.38492486 4286216844
2.7251182 0.66888416 0.37860799 4290559684
2.7374697 0.72589791 0.38848001 4289704371
2.7582767 0.73072064 0.37917274 4290033080
2.7265439 0.77503943 0.39609462 4289967801
2.7669601 0.76846832 0.38628069 4289836726
2.6843128 0.83441019 0.38943931 4290098615
2.7194247 0.8206948 0.38062853 4289770934
2.7603102 0.82629472 0.37140244 4290033079
2.6357789 0.88066721 0.37322903 4289835700
2.6781874 0.85905951 0.37055531 4289835701
2.7271061 0.86613113 0.37557551 4289639605
2.6154389 0.92604464 0.36997393 4289639092
2.7643619 0.90774882 0.39651924 4289508275
2.6317947 0.97170174 0.38322279 4289572784
2.7687874 0.96750838 0.38142529 4289376435
2.6315892 1.0253046 0.378712 4289507506
2.683198 1.0220934 0.3544659 4289376690
2.7340598 1.007145 0.39599496 4289310899
2.6345468 1.077545 0.38286608 4289376432
2.691355 1.0721431 0.35713196 4289245360
2.6422787 1.1106987 0.38122955 4289442224
2.6541831 1.1331806 0.37402111 4289310128
2.7116904 1.125155 0.37778828 4289179826
2.6690328 1.1748389 0.37584198 4289244848
2.7274806 1.1737509 0.37189564 4289179312
2.6618493 1.2221527 0.37068686 4289047471
2.7324963 1.2095925 0.36500332 4289178797
2.7561657 1.2360412 0.38618171 4289179053
2.6846445 1.2765936 0.36845872 4289112492
2.7005768 1.2960204 0.37055829 4288981676
2.7244632 1.3284864 0.37366831 4288784809
2.5432472 1.3904552 0.38146511 4285355357
2.5906243 1.3918606 0.37156683 4289115058
2.6240036 1.376734 0.37659502 4285493094
2.6606743 1.3655175 0.38205537 4288519068
2.7174799 1.3632538 0.37502527 4288521383
3.3130383 -2.0978255 0.4472875 4285823605
3.3129427 -2.0463037 0.44499725 4287994776
3.2756951 -1.7603869 0.40885708 4281216039
3.3882661 -1.774122 0.42010739 4284438339
3.4427431 -1.7669144 0.4027968 4284635973
3.4608178 -1.7294732 0.41133654 4284504648
3.4620516 -1.6837006 0.41998905 4284701771
3.4223237 -1.6021111 0.4181149 4283385405
3.4614949 -1.6366614 0.43360567 4284109639
3.4282939 -1.5664612 0.42495608 4284044362
3.3924134 -1.5105929 0.41773558 4283123268
3.4265907 -1.5216215 0.43677485 4283188542
3.4541888 -1.5309069 0.44829607 4284833366
3.3988738 -1.4638684 0.4200967 4283780942
3.4408548 -1.4733903 0.44856131 4285031771
3.4755149 -1.4285269 0.44035286 4285032542
3.4986811 -1.35965 0.41126436 4285624165
3.5185425 -1.3826225 0.43695146 4285493093
3.5181932 -1.3429043 0.4245221 4285624423
3.57341 -1.3325235 0.43857348 4285558632
3.6383605 -1.3167933 0.44949913 4285690987
3.5843165 -1.2784718 0.42730314 4285887597
3.6282957 -1.2448013 0.43799353 4285822072
3.6599495 -1.2162575 0.42716676 4285953650
3.5959816 -1.1844548 0.44056123 4285756020
3.637784 -1.1728028 0.42431208 4286216822
3.5787439 -1.1234431 0.41642764 4286545530
3.6306841 -1.1383952 0.4392806 4285953145
3.5886865 -1.0758438 0.41228899 4286216308
3.6129804 -1.0844975 0.44528723 4286084209
3.5794911 -1.0237859 0.42836455 4286281844
3.6158986 -1.037191 0.42942464 4285887857
3.5831819 -0.97892159 0.42646849 4285887599
3.6159585 -0.95091927 0.42017186 4285887857
3.53633 -0.92078233 0.40688598 4285952878
3.5713129 -0.92977577 0.43657145 4285887087
3.6263595 -0.91772676 0.43307042 4285953136
3.6588094 -0.91416013 0.41269523 4285887604
3.5211563 -0.87932158 0.41872826 4285755759
3.6226704 -0.86488008 0.43624234 4285821807
3.6697326 -0.89270747 0.41378379 4285756018
3.4919786 -0.82108188 0.41771019 4286810262
3.5734918 -0.82153136 0.42617795 4285492847
3.4808741 -0.76515293 0.40876469 4286679443
3.5229378 -0.78452933 0.43282735 4286547598
3.4787505 -0.71509361 0.41810259 4286351249
3.5100422 -0.72889924 0.42292452 4286218893
3.4919558 -0.6872595 0.40404925 4286284174
3.5164247 -0.68106759 0.42189667 4286021515
3.5659096 -0.6627633 0.4280726 4286416272
3.4620085 -0.61941093 0.40999094 4286349967
3.5223203 -0.61758929 0.42317963 4286021256
3.5587585 -0.6222313 0.42690846 4286219407
3.4741306 -0.56428158 0.44428968 4285889670
3.5175495 -0.56838799 0.42162034 4286153611
3.4478693 -0.51065791 0.43548924 4285759633
3.4863851 -0.52480698 0.4195314 4286416784
3.4688613 -0.4686774 0.43351537 4284252838
3.4246893 -0.42707253 0.419532 4281452760
3.5015757 -0.41535237 0.44480616 4285890705
3.3937407 -0.35346329 0.41280878 4278208945
3.415715 -0.37296686 0.41211596 4283994281
3.4699674 -0.35083237 0.44356591 4285956238
3.3936574 -0.33102748 0.41263276 4287271085
3.4279912 -0.31744123 0.41894886 4286745243
3.4506485 -0.31384659 0.44222736 4286086541
3.4367871 -0.27072719 0.4133361 4287008414
3.4696364 -0.27702072 0.41949823 4287008926
3.4089515 -0.21301365 0.40783983 4287665831
3.4902897 -0.23138978 0.41202483 4287402913
3.5093617 -0.23834881 0.43754309 4286811034
3.3856959 -0.17607746 0.40680438 4287995052
3.4310086 -0.15340425 0.41583285 4287534757
3.4600835 -0.1661426 0.43092418 4287271327
3.5091679 -0.18024991 0.44870216 4287337380
3.3825893 -0.12970743 0.40875542 4287534500
3.4214199 -0.11885549 0.43706369 4287534242
3.3785648 -0.085172132 0.41438794 4287534240
3.4258046 -0.056333497 0.41531754 4287533209
3.3865621 -0.031728517 0.41704664 4287468705
3.428381 -0.011395683 0.42595232 4286545792
3.3924119 0.0055099456 0.40999261 4287005839
3.4113877 0.020617159 0.42722914 4285886573
3.4541175 0.042801619 0.42742556 4284701271
3.3921523 0.078470469 0.41503561 4286149229
3.419703 0.064812526 0.42163119 4283582798
3.4508786 0.087724447 0.43434209 4285227099
3.3829744 0.12869193 0.41910946 4284043858
3.4340324 0.12448412 0.42083424 4285160801
3.391871 0.16273709 0.43122074 4282656555
3.4309993 0.18198752 0.4244923 4285425003
3.442318 0.21793199 0.42206392 4285493634
3.4742568 0.21921104 0.4298954 4285821041
3.5309768 0.24464399 0.43691689 4286215023
3.4199557 0.26564318 0.41139701 4286411893
3.4684949 0.2693485 0.4402023 4286149746
3.5646143 0.28104758 0.42757905 4286149489
3.4324322 0.32337958 0.42389476 4286411891
3.6158631 0.32221562 0.44446075 4286478712
3.3910005 0.38691896 0.40700042 4286740860
3.422744 0.375429 0.42606068 4286609531
3.6233375 0.37627608 0.44719267 4286544765
3.3770978 0.43008319 0.41061503 4287136649
3.4099541 0.41174224 0.43168983 4286740860
3.4961209 0.42497543 0.40616626 4287861921
3.5178368 0.43533623 0.4424898 4286348938
3.5730669 0.40511051 0.43551433 4286677122
3.3721938 0.47417024 0.41531041 4287335576
3.4285703 0.47468835 0.41841254 4286874506
3.4637375 0.45430058 0.43776679 4286546057
3.3664451 0.54423094 0.42040879 4284834920
3.4355474 0.52863097 0.4265604 4286019195
3.0683014 0.59590411 0.44775364 4287470511
3.1206937 0.59806103 0.43153226 4287931319
3.1635039 0.5648731 0.41142613 4286944170
3.2906234 0.55856562 0.40299702 4286284948
3.3260043 0.55961061 0.44898885 4285626504
3.4773669 0.56910551 0.42763996 4285755246
3.5473197 0.59212154 0.44787058 4285557356
2.6674106 0.64393157 0.42363155 4289440172
2.7243757 0.64077985 0.42704588 4288651176
2.7641242 0.62998104 0.42100158 4289375922
2.8333457 0.63023877 0.42388916 4289705148
2.925477 0.6285674 0.42211586 4289114558
2.9641824 0.61537707 0.42240757 4288720061
3.027457 0.61601257 0.43005848 4288457146
3.078881 0.6106739 0.41124237 4288260026
3.1312375 0.60766619 0.43619922 4287536558
3.1631861 0.61355722 0.41969863 4287469741
3.2291181 0.62587523 0.40705892 4287470765
3.2901902 0.61572313 0.42578635 4287074982
3.4471459 0.62130058 0.41205207 4285625477
3.4771962 0.6151942 0.4272784 4285427577
3.5272405 0.61221009 0.44516286 4284900711
2.6450462 0.67197752 0.44189155 4288255892
2.6830642 0.67015827 0.4270651 4288190362
2.7028923 0.68798119 0.41115305 4285753703
2.643944 0.7139774 0.44647962 4289045926
2.6785722 0.71342206 0.42773095 4287598738
2.7286451 0.7259832 0.41574231 4286808705
2.7507615 0.7179929 0.4000791 4289901754
2.6866701 0.7613135 0.43778229 4288848291
2.7063265 0.77495182 0.42332178 4287730324
2.6323864 0.8341946 0.42971626 4288651172
2.6747618 0.81689614 0.41770467 4288519585
2.7011509 0.80476129 0.42429554 4287335567
2.6413844 0.87411338 0.41782227 4288256155
2.7271044 0.85135984 0.42903519 4287533714
2.6430225 0.91831946 0.40026045 4289836982
2.6667519 0.9148652 0.42747736 4286151037
2.7159557 0.92224503 0.43870336 4288389280
2.6858809 0.96868783 0.42429337 4285031523
2.7257843 0.96995306 0.44337547 4288455074
2.6816881 1.0206003 0.42324361 4284899686
2.7265482 1.016644 0.44269639 4288389280
2.7276785 1.0658039 0.42315564 4287138701
2.7826138 1.0973302 0.41817945 4288982187
2.674253 1.1375109 0.421222 4286875268
2.7315385 1.1121801 0.42768753 4287467666
2.6686354 1.1840272 0.42298186 4286677895
2.7153974 1.1575302 0.41653347 4287140497
2.680932 1.224775 0.42164847 4287138956
2.7155585 1.203179 0.41859508 4287468695
2.772409 1.2288506 0.40459383 4288851631
2.6417408 1.2861955 0.44117844 4288717723
2.6721599 1.272279 0.42337632 4286217078
2.7006409 1.2963016 0.40638074 4288850088
2.639781 1.3202935 0.4406043 4288389278
2.6765308 1.3311012 0.41659871 4286807672
2.7005415 1.3231393 0.40617019 4288915111
2.5807924 1.3937287 0.41285923 4288257695
2.6328416 1.3750091 0.43223694 4285822832
2.6709054 1.3619719 0.41012326 4286283129
2.5643024 1.4021938 0.43564203 4286474610
2.619307 1.4058266 0.44517583 4288916653
3.3923659 -2.1554558 0.49218184 4283848258
3.3553636 -2.1023417 0.46466082 4286217077
3.3262315 -2.005007 0.46374017 4286741365
3.4491732 -1.7728274 0.45773619 4284570956
3.4876561 -1.7835836 0.49286515 4284768080
3.5665936 -1.7721879 0.47950816 4284176714
3.6296372 -1.7798561 0.48780978 4284308298
3.4738429 -1.7185359 0.47684512 4284703055
3.6189618 -1.738946 0.4741908 4284439882
3.4645553 -1.6622385 0.46631655 4284768594
3.535641 -1.6518712 0.47460914 4284767823
3.5768099 -1.6948478 0.48030972 4284833615
3.4319849 -1.6225038 0.47832859 4284834387
3.5145335 -1.618659 0.48321632 4284965456
3.3876038 -1.5611233 0.4861716 4284834649
3.4162612 -1.5822231 0.47751412 4284965974
3.4260659 -1.5241377 0.48065791 4284965720
3.51419 -1.5258466 0.48248819 4284768853
3.4516456 -1.480303 0.48551476 4285031000
3.5140183 -1.4794405 0.48212412 4284768341
3.4740238 -1.4337797 0.48321566 4284965719
3.507247 -1.4181557 0.47026283 4285032027
3.4355805 -1.3552892 0.49340135 4285228122
3.4679995 -1.3835775 0.48285988 4285228375
3.5162883 -1.3833935 0.47470674 4285229152
3.5500391 -1.3770862 0.47346574 4285623910
3.4354966 -1.3326023 0.49322337 4285294687
3.4744582 -1.3250678 0.48713467 4285228894
3.5204151 -1.3196911 0.47406653 4285295460
3.5673146 -1.3277061 0.47670904 4285558629
3.6173704 -1.3089085 0.47081712 4285559140
3.660306 -1.3006815 0.45203221 4285822062
3.5659385 -1.2898804 0.48242021 4285887082
3.6178365 -1.2674352 0.46993488 4285690474
3.6822491 -1.2719269 0.4788149 4285756520
3.5836787 -1.2458787 0.48609036 4285822062
3.6380911 -1.220296 0.49685708 4285625187
3.6710305 -1.2196769 0.46482804 4285953648
3.5908504 -1.1923648 0.49126703 4286084976
3.6309183 -1.178022 0.48756734 4285822574
3.6598587 -1.1798044 0.45108393 4286216571
3.5771654 -1.1280371 0.48921537 4286018670
3.6335213 -1.1277791 0.48113346 4285822838
3.5835738 -1.078967 0.47943586 4286215278
3.616544 -1.077837 0.48494995 4286216819
3.5760918 -1.0299892 0.47765878 4286084205
3.5599408 -0.98228806 0.4721899 4285953390
3.4863148 -0.92327994 0.48967683 4286018927
3.5209649 -0.93403029 0.4660756 4285953134
3.4794979 -0.88316888 0.48842382 4285953133
3.5299225 -0.8827908 0.46766075 4285887344
3.5609803 -0.86162102 0.47212881 4285756270
3.4927189 -0.84807587 0.49772647 4285888107
3.548955 -0.84015334 0.45912206 4286284426
3.5740886 -0.82273507 0.47739309 4285493618
3.5730693 -0.77059937 0.47270152 4285889151
3.569438 -0.72431684 0.46901578 4285758081
3.6152468 -0.72339153 0.49014211 4286218887
3.5866764 -0.6753611 0.47490263 4285297273
3.6255801 -0.67765129 0.49119163 4286087814
3.5389857 -0.60440731 0.46603113 4285560449
3.5818787 -0.63012606 0.48308679 4285165683
3.5341978 -0.56356031 0.47434464 4285297530
3.5621934 -0.58326387 0.47025049 4285956489
3.4893479 -0.50898242 0.46346617 4285034358
3.5157092 -0.51732486 0.4752804 4285561216
3.5509117 -0.5234344 0.49392551 4284112222
3.4712744 -0.4646579 0.48045093 4285099637
3.5416079 -0.47263876 0.48271459 4284638313
3.4320555 -0.41395006 0.46330327 4285758598
3.4611173 -0.41736212 0.490125 4284178016
3.5309289 -0.42058787 0.49019182 4284440417
3.4319296 -0.37991929 0.4630363 4285889932
3.4865701 -0.37130761 0.48141074 4284704360
3.4778607 -0.32260042 0.46301484 4286021255
3.5203159 -0.33170465 0.49782765 4284374617
3.480669 -0.27513817 0.45509982 4287007897
3.5110502 -0.27148575 0.47666579 4286020735
3.4738984 -0.22810301 0.46364099 4287401621
3.5303073 -0.21643052 0.45166361 4287402915
3.560864 -0.21820913 0.47913721 4287732640
3.4392645 -0.17164432 0.45593745 4287533723
3.5711944 -0.17170493 0.48018071 4288849843
3.470047 -0.10984404 0.46313286 4287138707
3.5176384 -0.11773395 0.47685575 4286809740
3.4402995 -0.073918879 0.46190992 4287139481
3.4798546 -0.074758105 0.49025226 4285031264
3.5164928 -0.062953785 0.47428805 4285953396
3.4211459 -0.02805974 0.47035834 4286283132
3.5308075 -0.021475531 0.47353032 4286017647
3.4304805 0.017195325 0.47127751 4286018160
3.5310807 0.018982276 0.47494933 4286214511
3.3921604 0.095605955 0.45420894 4286083183
3.4302917 0.069343381 0.47313976 4286214769
3.4738896 0.073830374 0.46462122 4286016617
3.5072038 0.059951469 0.4850679 4286214767
3.3709066 0.1287102 0.47343168 4286214512
3.439945 0.1428663 0.45760012 4285287769
3.4599087 0.14049853 0.4935323 4285488993
3.3737414 0.17347361 0.47348282 4283972678
3.4460831 0.18726125 0.45984358 4286544769
3.4754288 0.18562537 0.48563999 4286346355
3.3918257 0.2081378 0.49824929 4286412148
3.4344749 0.22171295 0.47031018 4286084988
3.4990404 0.21965857 0.47825611 4286412406
3.5619411 0.24218705 0.48622882 4286346355
3.4735563 0.27000299 0.4753581 4286478195
3.5966825 0.27324149 0.48736358 4286280819
3.448241 0.34790516 0.4598749 4286675067
3.4783862 0.31637639 0.47569802 4286411890
3.6356254 0.33001733 0.4888629 4286609782
3.4354489 0.38459507 0.4654592 4286740859
3.4659653 0.3787142 0.49217966 4286675320
3.532063 0.38887972 0.48787653 4286675316
3.5955303 0.3650673 0.49041975 4286741365
3.6497216 0.36092761 0.46498525 4286610044
3.390955 0.43231967 0.47402897 4286675576
3.4100349 0.41209689 0.47686186 4286675578
3.463511 0.44026327 0.49296761 4286609779
3.5089364 0.43300211 0.47546881 4286609274
3.584868 0.41573036 0.46018332 4286413699
3.390872 0.45475551 0.47385299 4286609783
3.4097843 0.47978142 0.47633088 4286478457
3.4603751 0.49710616 0.45010597 4285820779
3.51245 0.48465911 0.49380666 4286148719
3.4158907 0.52534521 0.46211472 4285229678
3.4710057 0.53191113 0.46828356 4285688937
3.0533621 0.59330297 0.47590846 4287339179
3.1472905 0.59904194 0.47127056 4287931317
3.1746075 0.57825929 0.45863569 4287273134
3.2207048 0.56786913 0.46879464 4286943915
3.4283803 0.59589601 0.48938787 4284899681
3.4874885 0.55955589 0.47513157 4285886571
3.5168929 0.58743411 0.4789325 4285228900
2.6686459 0.6420384 0.47537583 4290560204
2.7351208 0.63724899 0.47704214 4290758095
2.7804093 0.62805676 0.47505629 4290363593
2.8808753 0.62839586 0.46732569 4289509058
2.9129479 0.6238029 0.49008524 4289245377
2.9642487 0.6236226 0.47543749 4288588732
3.0197616 0.61403596 0.46831986 4288457146
3.1036594 0.61334109 0.46648228 4288588477
3.2133377 0.60216904 0.47971809 4286747046
3.2642596 0.61123204 0.45489097 4286813348
3.3723376 0.60881358 0.49245328 4285230203
3.4282556 0.61840481 0.46649811 4285231748
3.4872971 0.60561997 0.46321824 4284702560
2.6456165 0.67109811 0.46883601 4288848031
2.657902 0.67143363 0.47479251 4288914342
2.6321478 0.71401036 0.48762465 4289046182
2.6671183 0.72082424 0.48002374 4289374378
2.6618226 0.76872605 0.47096476 4289901492
2.6387799 0.82742542 0.47520494 4289901236
2.6695168 0.81133509 0.47358665 4289770421
2.6330874 0.8751651 0.48353267 4289638834
2.6656666 0.85982925 0.47325748 4289573297
2.5886362 0.93149281 0.4955976 4289376689
2.6152544 0.91146493 0.48858976 4289376689
2.6692395 0.91125822 0.468317 4289507763
2.7020774 0.93895835 0.47187719 4289639093
2.6290555 0.96884072 0.49468654 4289376433
2.6863351 0.9604466 0.46543998 4289376689
2.7339525 0.97404033 0.47423306 4289376436
2.6849365 1.0149279 0.48154223 4289310639
2.7708037 1.0175526 0.48043263 4289441714
2.8007956 1.0284942 0.4979986 4289573043
2.6871173 1.0641949 0.46471226 4289179311
2.7435522 1.0712154 0.45099509 4289310639
2.7876048 1.069801 0.47684643 4289442229
2.6423485 1.1406475 0.48028383 4289375661
2.6853454 1.1213562 0.4709613 4289244590
2.7164059 1.1240084 0.47757101 4289310382
2.7747476 1.1201434 0.47424927 4289310638
2.8004878 1.1025348 0.4788498 4289244846
2.6345644 1.1769352 0.46623239 4289112749
2.6696937 1.1693724 0.45749035 4288916396
2.6200104 1.24139 0.49859369 4288981674
2.6602449 1.2246617 0.4711993 4289046955
2.6352677 1.2710884 0.48031807 4288850087
2.6538694 1.2568687 0.45225561 4288850599
2.6306849 1.3218627 0.48257977 4288586914
2.6352103 1.3707892 0.47811577 4286018154
2.5753453 1.4084028 0.47167495 4287791232
2.6358268 1.414798 0.47422013 4288916644
3.3249378 -2.1097882 0.54293501 4282795063
3.3648205 -2.1242576 0.52500647 4282927679
3.4077826 -2.1273317 0.50731874 4283651397
3.3271923 -2.0686736 0.54840046 4282991416
3.3635702 -2.0589185 0.53868014 4283386942
3.4144166 -2.0793512 0.50974339 4284111437
3.3782206 -2.0300109 0.54180956 4283386689
3.4300485 -2.0120401 0.53831863 4283847749
3.4674327 -1.9838078 0.54491657 4283519811
3.4815061 -1.9196489 0.5367009 4284176972
3.5219903 -1.8707964 0.51953107 4284637009
3.5486364 -1.8467922 0.52409428 4284768082
3.5351827 -1.7887425 0.5230729 4283912522
3.5877666 -1.794234 0.52991742 4284439889
3.6262379 -1.781754 0.5392943 4284637262
3.6622038 -1.7837143 0.51632953 4284440142
3.4946351 -1.735828 0.50753754 4284834388
3.5980465 -1.7281897 0.54276681 4284899663
3.640069 -1.7488589 0.51303238 4284505935
3.4604416 -1.6657751 0.52904099 4284768849
3.5663297 -1.6777121 0.52594328 4284834128
3.4212825 -1.6308825 0.51242739 4284900179
3.5356174 -1.6282539 0.50947708 4285030736
3.5724106 -1.6169125 0.52875173 4284900176
3.6396 -1.6043963 0.5479852 4285228115
3.3917685 -1.5773957 0.52164364 4284899663
3.5974326 -1.573988 0.5177778 4285097300
3.6395111 -1.5803664 0.54779673 4285031765
3.3639131 -1.5150795 0.52911031 4284570702
3.576283 -1.5291836 0.52636015 4284900437
3.333955 -1.4581542 0.54558873 4284175680
3.3944449 -1.4655442 0.51364535 4284965717
3.5210297 -1.46671 0.51398247 4284899928
3.5551777 -1.4965355 0.53475988 4284834901
3.3562479 -1.4231241 0.5442549 4284307012
3.413883 -1.4200561 0.54135674 4284701774
3.4628053 -1.421149 0.53044724 4285031514
3.4356906 -1.3701763 0.5238024 4285031513
3.4754167 -1.3969557 0.54336154 4285031000
3.5075753 -1.3777746 0.54062527 4285229406
3.4279315 -1.3247696 0.52833277 4285032023
3.4744351 -1.3018517 0.52144289 4285558111
3.5246971 -1.3382052 0.5301739 4285426272
3.4823794 -1.2817652 0.53162634 4285426269
3.5319722 -1.2728924 0.51604307 4285623908
3.5542669 -1.2619772 0.50941855 4285689443
3.6602137 -1.2519505 0.50005621 4285689956
3.484195 -1.2249601 0.54535103 4285558114
3.5271795 -1.2287388 0.52868003 4285558885
3.5690646 -1.2365252 0.51627207 4285886568
3.4840245 -1.1788713 0.54498947 4285493348
3.5340178 -1.1845727 0.52936512 4285887339
3.5696783 -1.1819042 0.51982486 4285821548
3.493912 -1.1477195 0.54628497 4285689956
3.5281734 -1.1369771 0.54701066 4285755494
3.5676203 -1.1316054 0.52622062 4285821548
3.6167486 -1.1174049 0.51715153 4285756269
3.4781191 -1.0683943 0.54969472 4285426530
3.518044 -1.0824177 0.53116226 4285755497
3.5598826 -1.097139 0.51230919 4286018668
3.6218946 -1.0830505 0.52961493 4285953133
3.467793 -1.0275192 0.54936177 4285360737
3.5296054 -1.035609 0.51017356 4285953132
3.5848742 -1.0127072 0.52378631 4286019183
3.6165047 -1.0456381 0.52854776 4286019183
3.49191 -0.96073139 0.51943171 4285952617
3.5248451 -0.97977096 0.5169028 4286018669
3.5532243 -0.98028606 0.50720865 4285953902
3.4845347 -0.92033374 0.52148515 4285952877
3.5151799 -0.93225729 0.51825833 4285952878
3.462872 -0.87470549 0.52803767 4285821804
3.5284917 -0.88600492 0.51485199 4285360740
3.5698185 -0.86125743 0.50913012 4285031517
3.4337308 -0.83312768 0.53473139 4285953132
3.4776778 -0.82108402 0.52989376 4285492582
3.5186203 -0.81568074 0.50887507 4285295715
3.5680637 -0.83628964 0.52170408 4284374361
3.5115671 -0.78280079 0.54634804 4284440158
3.5672214 -0.78960252 0.52197146 4284440154
3.625999 -0.77314115 0.52792257 4284572765
3.5548949 -0.73353434 0.52325231 4283914069
3.6693664 -0.73414147 0.53391975 4284309080
3.5207608 -0.67636096 0.53822333 4283781715
3.5946205 -0.6818682 0.51819557 4283913817
3.6361103 -0.66732526 0.5286051 4284046683
3.6582208 -0.69563144 0.53199661 4284177755
3.5390217 -0.61998558 0.53665119 4283781200
3.5892646 -0.62717658 0.51858449 4283913818
3.6150231 -0.63939756 0.53731996 4283980117
3.5168607 -0.56687689 0.54344249 4283584332
3.5621693 -0.57548761 0.51533651 4283913815
3.4915633 -0.51309049 0.54130626 4283650122
3.5244431 -0.52132756 0.52646172 4283715921
3.4713562 -0.46429777 0.52632481 4283649358
3.5332282 -0.47599897 0.53560758 4283518025
3.4778743 -0.41987145 0.53453124 4283451976
3.5420988 -0.43846473 0.51924127 4283321679
3.4494381 -0.37568513 0.54346514 4283451717
3.4763234 -0.36982876 0.52001679 4283649098
3.5100005 -0.36523628 0.53145736 4283650124
3.4091825 -0.31110528 0.53985947 4283386694
3.4611764 -0.31725594 0.50112545 4283978828
3.5203786 -0.33143023 0.53277439 4283518540
3.4153724 -0.26633748 0.54212189 4283518279
3.4724269 -0.2725414 0.50401402 4283847757
3.5306695 -0.27414334 0.53390718 4283584075
3.5505748 -0.26432046 0.5015918 4284505946
3.4357202 -0.21206859 0.54664636 4283518283
3.4736562 -0.21477243 0.50609481 4284044622
3.5630493 -0.2203819 0.52184933 4284044627
3.4403281 -0.15551415 0.54904306 4283584329
3.4781885 -0.15756044 0.50856674 4284110161
3.592289 -0.17242858 0.53056175 4283715918
3.613256 -0.17371126 0.50974822 4284768606
3.4879799 -0.11542644 0.53027666 4284110159
3.5247688 -0.10402638 0.50468051 4284701782
3.5626838 -0.1215119 0.52110153 4284307288
3.4756925 -0.064883813 0.53477263 4284307282
3.5050001 -0.077513382 0.52758753 4284307026
3.550559 -0.07145074 0.50896806 4284965212
3.4383361 -0.025620103 0.52494872 4284570197
3.5157766 -0.034900904 0.52891022 4285293406
3.5643494 -0.022313014 0.52008682 4285886058
3.4337494 0.017653584 0.52846068 4285359458
3.5686259 0.019969985 0.52591252 4286083694
3.4303522 0.074186124 0.51625681 4286149234
3.4792359 0.098609492 0.52847415 4286017900
3.5223825 0.065171957 0.51771134 4286017901
3.3921766 0.12987691 0.53255558 4286149231
3.4609604 0.13807423 0.53862846 4286149486
3.3830092 0.17432439 0.53082097 4286149233
3.4933622 0.18089953 0.52843773 4286281074
3.4260259 0.2239382 0.53037095 4286346354
3.5378706 0.22436973 0.53258234 4286609779
3.5723789 0.24032217 0.52208191 4286543732
3.4686813 0.25850719 0.52068746 4286609525
3.5180964 0.28525758 0.52797115 4286346867
3.5931444 0.27429909 0.53737462 4286543988
3.6411316 0.28830352 0.50864166 4286478709
3.5282168 0.32108986 0.52923369 4286675060
3.5574136 0.34212545 0.53514212 4286543990
3.6041493 0.3168759 0.53630066 4286544245
3.4202011 0.38693836 0.5290454 4286412658
3.4882338 0.37520865 0.51123363 4286740860
3.527982 0.36386976 0.53279161 4286543989
3.3869665 0.41200367 0.52660197 4286412916
3.4289353 0.42294893 0.51532173 4286543988
3.5071876 0.40055683 0.53706449 4286610295
3.4478993 0.47391373 0.52740341 4286412916
3.4664247 0.45220533 0.54570979 4285952621
3.5223529 0.49342197 0.53933781 4285755242
3.4259276 0.52566433 0.50235891 4285557098
3.4876995 0.52530253 0.52160805 4286215279
3.5102954 0.53545249 0.5246225 4285557611
3.5500243 0.51117867 0.52834862 4285820011
3.0784428 0.59843725 0.53075647 4287338410
3.1854653 0.59120035 0.516289 4287602096
3.2381179 0.56732035 0.51220655 4286680478
3.3364589 0.55523598 0.54598802 4284505703
3.3539517 0.55929583 0.50562465 4284836466
3.4284616 0.59625316 0.53487444 4284571485
3.4875076 0.57527333 0.5173654 4285360485
3.5065866 0.56297839 0.53579032 4285689193
2.6195328 0.63777137 0.52444345 4290888650
2.6782563 0.63429892 0.53363788 4290823627
2.7212265 0.63338155 0.51873004 4290757834
2.7664061 0.62445313 0.52669805 4290363850
2.8366568 0.62803268 0.52610105 4289575368
2.9222078 0.62501168 0.53044462 4288523197
2.9608507 0.62035847 0.52487338 4288259768
3.0364299 0.61574841 0.52001584 4288194232
3.0533779 0.61390686 0.52632177 4287537587
3.1203976 0.61226046 0.5232054 4288062905
3.2304077 0.60561138 0.52511311 4286812322
3.3813944 0.61066222 0.52739787 4284770164
2.6389971 0.66401827 0.52765298 4289835702
2.6561112 0.67711359 0.50960708 4289243308
2.6446233 0.71384281 0.53116047 4288783271
2.6695349 0.73506165 0.53059006 4289375919
2.6839349 0.77905232 0.531326 4289902005
2.6245406 0.83257973 0.54332995 4289508275
2.6656146 0.82004762 0.52853054 4289639090
2.6233864 0.86796236 0.54003453 4289376690
2.6688998 0.87491947 0.51956052 4289770420
2.6271851 0.91820467 0.53595096 4289442227
2.6758199 0.9268834 0.5258252 4289638835
2.6259413 0.96683657 0.54318535 4289507762
2.6901124 0.95909834 0.53200811 4289573554
2.714036 0.97336298 0.51868629 4289441969
2.7629342 0.9966051 0.50970674 4289508018
2.6151016 1.0210112 0.5478844 4289441455
2.6644185 1.022987 0.52804983 4289573040
2.7349005 1.0185831 0.53599948 4289507761
2.7748194 1.0377584 0.53002483 4289638832
2.8008289 1.02864 0.51656532 4289376432
2.5987065 1.0766174 0.54731512 4289244846
2.637495 1.0717676 0.54310524 4289310639
2.6805112 1.0845428 0.51284564 4289310382
2.7173672 1.0638875 0.51188076 4289310382
2.7686734 1.0721071 0.51943493 4289573040
2.823818 1.074315 0.51115936 4289573040
2.6355941 1.1285917 0.52205676 4289244846
2.665117 1.116941 0.50765026 4289179055
2.8254938 1.1123801 0.50185245 4289506729
2.6251812 1.1742504 0.51745963 4289113003
2.670846 1.1814067 0.50735974 4289047211
2.622864 1.2232761 0.51881641 4289047467
2.5923872 1.2888963 0.52728117 4288587428
2.6155446 1.270692 0.52179396 4288718757
2.593657 1.3175153 0.52733213 4288390048
2.6305742 1.3731138 0.52580982 4284965208
2.6534908 1.398138 0.53035223 4285360990
2.5864193 1.414749 0.52520412 4289306010
2.6377032 1.42487 0.51817894 4289509042
2.65341 1.4156498 0.52141428 4288455070
3.2828715 -2.0688324 0.58009094 4282335028
3.2766957 -2.0140197 0.58435988 4282334770
3.3349328 -2.0144496 0.5590747 4282926139
3.2871408 -1.9770224 0.58716834 4282597170
3.3215406 -1.964138 0.58955252 4282466351
3.3815451 -1.9754115 0.57968163 4282991156
3.4310379 -1.9753017 0.58790004 4282729012
3.4648359 -1.9703901 0.58149809 4282991930
3.5098829 -1.9721265 0.57645178 4283189562
3.5146759 -1.9347098 0.56593424 4283518786
3.5373158 -1.8947804 0.558209 4283979847
3.5710776 -1.8615599 0.56438035 4284110924
3.5722702 -1.8089676 0.57060093 4284044616
3.5397942 -1.7502875 0.56284559 4284374092
3.5898814 -1.7759678 0.57508361 4284045642
3.5010805 -1.7028044 0.5705021 4283847241
3.5630734 -1.7187185 0.57674956 4283913543
3.4664669 -1.670612 0.56597412 4283913031
3.5358725 -1.6627165 0.57985377 4283715136
3.5558715 -1.672408 0.55964082 4284637773
3.4427567 -1.6456385 0.58698297 4283780676
3.5357428 -1.6277035 0.57957911 4283912003
3.562711 -1.6246977 0.56817824 4284439627
3.6291671 -1.6114738 0.5704813 4284900691
3.3877513 -1.579986 0.57508302 4283715137
3.5835769 -1.5790658 0.58690697 4284043842
3.6185141 -1.570958 0.56854653 4284899409
3.3445988 -1.5177259 0.58611792 4283714879
3.3516104 -1.5466973 0.59815747 4283648831
3.5763674 -1.5288136 0.57349879 4284373836
3.3319058 -1.4616945 0.58098805 4283452220
3.4951696 -1.4705312 0.58347332 4283650114
3.5351827 -1.487835 0.55511308 4284572245
3.3473642 -1.4206531 0.58928519 4283518013
3.4233394 -1.4071995 0.57503438 4283978819
3.461668 -1.4258493 0.58148718 4283781185
3.4294407 -1.3671894 0.57575923 4283780927
3.4763501 -1.3991076 0.58338755 4284175430
3.5018973 -1.3775806 0.5960958 4284109641
3.4261119 -1.3282608 0.56548142 4284241221
3.4546084 -1.3165357 0.58712769 4284043589
3.5072219 -1.3372834 0.5900566 4284307017
3.462445 -1.2785366 0.57441109 4284373324
