# .PCD v0.7 - Point Cloud Data file format
VERSION 0.7
FIELDS x y z rgb
SIZE 4 4 4 4
TYPE F F F U
COUNT 1 1 1 1
WIDTH 1123
HEIGHT 1
VIEWPOINT 0 0 0 1 0 0 0
POINTS 1123
DATA ascii
3.2939863 0.98016793 1.3558726 4285352764
3.3407049 0.98999268 1.3692535 4284300323
3.2977529 1.0255797 1.3571737 4285155649
3.3307855 1.0281405 1.3771658 4284694838
3.3838375 1.0337723 1.385622 4284956202
3.2925458 1.0780311 1.3549666 4284958267
3.3146064 1.0794044 1.3928509 4284629569
3.3914261 1.0819927 1.3729104 4284365344
3.2918448 1.1383297 1.3673637 4284760886
3.3221056 1.1252279 1.3955357 4284629047
3.4074607 1.1295526 1.3923208 4283773977
3.4281278 1.1878709 1.3862662 4284166681
3.4351707 1.233451 1.3837831 4284101916
3.4339962 1.2844127 1.3974907 4283642396
3.4403226 1.3293401 1.3962357 4283444502
3.4481921 1.384654 1.3935413 4283839007
3.4507873 1.382723 1.3527954 4283774494
3.4652128 1.4349706 1.354434 4285883740
3.3611095 1.4907146 1.3541485 4287400066
3.4242132 1.4739319 1.3543057 4287202425
2.7624624 1.5424347 1.3679242 4289637282
2.8041985 1.5369377 1.3644056 4289440419
2.9067857 1.5441219 1.3769183 4289571499
2.963515 1.5424619 1.3728483 4289439905
3.0123918 1.5378635 1.3739074 4288913566
3.0652618 1.5425386 1.3760808 4288453267
3.1189451 1.5468351 1.3875217 4287992463
3.2782905 1.5398747 1.3672785 4287991432
3.3178043 1.513463 1.3672717 4287531391
2.8654826 1.5504272 1.3506622 4289243299
3.1629276 1.558468 1.3750846 4288320654
3.1070125 -1.2781254 1.4303088 4284102701
3.0867968 -1.2146784 1.4004992 4285484085
3.1117704 -1.2115039 1.4330328 4284695080
3.0858531 -1.157451 1.4117842 4285416755
3.0787077 -1.1018656 1.4072675 4285024051
3.0770962 -1.0265439 1.4350026 4283128431
3.0721345 -0.97377157 1.429862 4283778122
3.0820484 -0.92917037 1.4345121 4285754213
3.0792422 -0.86919683 1.4321227 4286805885
3.0907955 -0.79984748 1.4431477 4288190107
3.1198106 -0.79543769 1.4278014 4286208594
3.1704769 -0.76805985 1.4329753 4286405445
3.1884391 -0.71348751 1.4484147 4286534462
3.1417801 -0.69854653 1.4074247 4286667328
3.1621628 -0.66395521 1.4161459 4286734138
3.1582017 -0.62920028 1.4259732 4287522898
3.1230729 -0.58859348 1.4012264 4287851347
3.1574583 -0.58006918 1.4454129 4287724398
3.1187897 -0.54227686 1.4000766 4287325006
3.1721804 -0.50495362 1.4113312 4287257931
3.2001252 -0.51296079 1.4334915 4286600006
3.1642282 -0.45174575 1.4123961 4286863433
3.1766222 -0.40460598 1.4107777 4288180066
3.2143774 -0.40669608 1.4406353 4287191629
3.2214859 -0.37031469 1.4226351 4290156432
3.2576778 -0.37578052 1.4011673 4292069330
3.3080814 -0.39219445 1.4436946 4292790738
3.2365489 -0.31787014 1.4230504 4289300606
3.2682328 -0.31435841 1.4338758 4292661193
3.213583 -0.2779749 1.4039098 4294901502
3.2789335 -0.26937538 1.4125739 4290750636
3.3049052 -0.26827705 1.4340028 4290882728
3.3147783 -0.23630673 1.4214814 4292067522
3.3700676 -0.22153503 1.4295702 4292790988
3.4438951 -0.22843933 1.4070562 4292001986
3.2275472 -0.16260952 1.4085004 4293776093
3.318007 -0.17063296 1.4404877 4291605430
3.3639593 -0.16601998 1.4053607 4293251030
3.4101069 -0.19494474 1.4067856 4292527564
3.2912683 -0.12281808 1.4337049 4290618278
3.3245058 -0.13651946 1.4154115 4293053905
3.3625388 -0.11455292 1.4360534 4292528587
3.2750657 -0.067094542 1.4092089 4290223004
3.3695457 -0.079751074 1.4050969 4291936195
3.3880935 -0.02922225 1.4289391 4291078823
3.217767 0.049143344 1.4024351 4290023308
3.3756781 0.032135665 1.4092894 4288511098
3.2526023 0.096511126 1.4092776 4289693562
3.3354189 0.074243128 1.4173129 4288444013
3.2889266 0.12540284 1.4211217 4288970095
3.3130014 0.10184354 1.4092176 4289101936
3.2705352 0.17139365 1.4085573 4288245599
3.283411 0.24228862 1.4191465 4287720027
3.2860904 0.28762501 1.4177241 4288575336
3.3283992 0.28475696 1.4290898 4286731587
3.2832494 0.34592944 1.424809 4287784530
3.3193693 0.3162396 1.4336038 4287717717
3.2935431 0.38273013 1.4302813 4286534212
3.2822895 0.41899571 1.419268 4286140219
3.3103428 0.4385761 1.4354975 4285284917
3.329669 0.48801321 1.4272079 4287061575
3.3527546 0.46635222 1.441298 4285217839
3.342629 0.5314517 1.4325575 4286667077
3.3704653 0.53029406 1.4380212 4285350193
3.2898636 0.55546236 1.4066702 4286603089
3.336745 0.58364874 1.4459175 4286403663
3.3405981 0.62751305 1.4284887 4285679425
3.3445117 0.68928403 1.4194167 4285352254
3.3523116 0.68284708 1.4225152 4285416244
3.329257 0.730663 1.4109664 4285220413
3.4003353 0.73027468 1.4489028 4284561447
3.3130276 0.75695026 1.4143867 4285483842
3.3809471 0.77891767 1.4128611 4284889635
3.3153434 0.80402279 1.4149425 4285681480
3.3598101 0.83212364 1.4059277 4284561702
3.3377278 0.88232714 1.4108794 4285023292
3.3365698 0.92046571 1.4024754 4284957742
3.3686607 0.93733126 1.4110453 4284429593
3.3268173 0.96891862 1.4063594 4285352000
3.397682 0.96987486 1.4223988 4284364831
3.3346775 1.0095179 1.4161481 4284892219
3.418252 1.0457944 1.4093065 4284758824
3.3343847 1.06327 1.4205347 4284497979
3.4225271 1.0776739 1.4114498 4284299297
3.3470685 1.1104119 1.4252665 4284432447
3.4296539 1.1308062 1.4150214 4283905059
3.3807192 1.1527743 1.4384818 4284629826
3.4768114 1.2336138 1.441534 4283510298
3.4431162 1.2727215 1.4390343 4283641373
3.4730091 1.3346536 1.4456503 4283641633
3.4623115 1.4337952 1.4193244 4286210648
3.4255106 1.4803183 1.4108706 4287137147
2.8269587 1.5456333 1.4141454 4289638053
2.8936853 1.5391452 1.4166983 4289506212
3.010777 1.5474391 1.4206097 4289308322
3.0672498 1.5409242 1.4346091 4288255877
3.1080642 1.5298972 1.4416796 4288189832
3.1565933 1.5366045 1.4220254 4287992202
3.242893 1.538401 1.436038 4287795073
3.2663298 1.5452794 1.4041357 4287926917
3.3284721 1.5401973 1.4171035 4287795076
3.3821247 1.5194129 1.4190345 4287662723
3.4275823 1.5016614 1.4427509 4287793024
3.2169127 1.5521746 1.4057157 4288058249
3.1332242 -1.3589255 1.4629252 4283843116
3.165118 -1.373288 1.4991421 4282399302
3.1390159 -1.3157393 1.4658284 4283186477
3.1239893 -1.2506248 1.4674793 4281541914
3.0735571 -1.2044615 1.4938673 4280492847
3.1092627 -1.2132741 1.4652143 4281410592
3.0816581 -1.1766217 1.4720058 4279638823
3.1164055 -1.1600043 1.4688233 4280360756
3.0406806 -1.1367433 1.4906527 4280758089
3.0990586 -1.1008514 1.4509056 4281020248
3.1110616 -1.1291471 1.4834256 4279118676
3.0831401 -1.0582482 1.4663817 4280245897
3.0979609 -1.0117108 1.4842395 4281358959
3.1149876 -0.96528542 1.4920845 4284970107
3.1099551 -0.90519834 1.4904065 4287338658
3.1028035 -0.82861328 1.48066 4289245368
3.0899253 -0.78795815 1.4790238 4288650913
3.1240473 -0.76340479 1.4704127 4287400068
3.1786251 -0.76404274 1.4881766 4286674799
3.2316816 -0.76241922 1.4996587 4285291077
3.084569 -0.74809563 1.4957465 4288058775
3.2549226 -0.7268486 1.498444 4289302128
3.1941597 -0.67083335 1.451282 4286930504
3.2110105 -0.65847242 1.4807417 4288837195
3.1825259 -0.6216557 1.4691765 4288051563
3.2169535 -0.55755115 1.4731559 4288251514
3.2564793 -0.52882695 1.4787076 4287260249
3.2228134 -0.45719182 1.4656446 4286272844
3.2524686 -0.49273288 1.4774771 4286601807
3.2407205 -0.41434205 1.479108 4286601293
3.2187979 -0.35872614 1.472522 4286403407
3.3426287 -0.36765391 1.4575932 4294109174
3.222085 -0.32758117 1.4800739 4287061330
3.330863 -0.31583416 1.4891139 4288773999
3.3694022 -0.3058064 1.4933562 4290485386
3.4119747 -0.27317607 1.4992665 4291012770
3.3490367 -0.2035929 1.452265 4293384160
3.3821797 -0.21641874 1.4881446 4289498509
3.3245232 -0.16502368 1.4884601 4288973960
3.3231583 -0.11784804 1.4714755 4289038982
3.4249787 -0.10300213 1.4680308 4291474871
3.3933349 0.028372765 1.4578277 4289430131
3.4317696 0.0020416975 1.4877321 4290811780
3.3686509 0.074827731 1.4640257 4288508248
3.4017322 0.065148056 1.4998012 4287850849
3.3700044 0.11469334 1.4803245 4287127132
3.3579674 0.16616338 1.4724793 4286931038
3.3310609 0.21948385 1.4662662 4288117103
3.3543367 0.24390125 1.4833184 4290028701
3.3445079 0.29135406 1.4577119 4287127372
3.3760662 0.26998645 1.4848679 4287196775
3.2976422 0.34057081 1.4729892 4289042582
3.3383563 0.3135916 1.4667825 4287393122
3.2743626 0.38593841 1.4733804 4289240215
3.2548294 0.43776613 1.4821876 4289963678
3.316365 0.44065142 1.4763119 4288976527
3.2733953 0.48089409 1.4976255 4289568409
3.3366745 0.47013071 1.4903769 4289042835
3.3908887 0.47914386 1.4711727 4286668376
3.3939388 0.51628411 1.4579501 4284627252
3.4088752 0.51263654 1.4974215 4286210139
3.3808136 0.58757901 1.4651515 4285748299
3.3780348 0.62445188 1.4712658 4286671462
3.3882177 0.66638249 1.4756562 4286870380
3.3616385 0.72040093 1.4547725 4285678917
3.3626237 0.78752947 1.4545215 4285877055
3.3810575 0.83680868 1.4615853 4285484611
3.39957 0.87676209 1.4687718 4285679422
3.4153378 0.93536317 1.4746537 4285155649
3.4069118 0.99059248 1.470667 4285416263
3.3823545 1.0147214 1.4603827 4285219388
3.3734536 1.0681862 1.4562192 4284695337
3.3919017 1.1079011 1.4633816 4284629575
3.416002 1.1397756 1.4729345 4284563247
3.4565582 1.1751063 1.4891866 4284302145
3.524086 1.2767556 1.4973124 4285356869
3.4989769 1.3701375 1.455862 4283707676
3.5327859 1.3962665 1.4800282 4283446046
3.5012155 1.4193788 1.4613025 4284431918
3.4769118 1.4650096 1.4604518 4287070069
2.9037941 1.548874 1.4576865 4289570723
2.9944339 1.5471883 1.4702591 4289505955
3.056278 1.5447761 1.497534 4288716184
3.1389239 1.5479717 1.4942989 4288188807
3.175632 1.5293756 1.4896479 4287729540
3.2030125 1.5282032 1.4505343 4287926150
3.2979846 1.5298574 1.4992759 4287598213
3.325289 1.5378869 1.457823 4288056705
3.3809969 1.5310211 1.4580113 4287400574
3.4526787 1.5161097 1.4742122 4287399546
2.872685 1.5738387 1.4528458 4289702825
2.9445858 1.5505598 1.4854021 4289440934
3.0858855 1.553063 1.4814327 4288913556
3.1794631 -1.3865048 1.5281227 4284703860
3.1554689 -1.3155168 1.5237775 4279705121
3.1092236 -1.2531618 1.5093721 4280359973
3.1033807 -1.2175955 1.5403848 4282993223
3.084672 -1.1297095 1.5104051 4279186265
3.0800331 -1.0635184 1.513144 4278998147
3.0460048 -1.0007087 1.5300467 4280445061
3.0876 -1.0048574 1.521363 4281881964
3.0597301 -0.97265768 1.5437762 4282142563
3.1080389 -0.96544528 1.533044 4285428859
3.1154361 -0.91724992 1.5345242 4288720052
3.104068 -0.85643697 1.5341892 4289046702
3.1006684 -0.8064456 1.5344338 4290035909
3.0881245 -0.78300512 1.5144337 4290165698
3.2388396 -0.75772572 1.5366892 4286537810
3.2668085 -0.75852501 1.5259452 4286864452
3.0895195 -0.73508364 1.5316558 4286611068
3.1214266 -0.7221902 1.524328 4287597963
3.1853848 -0.72865283 1.5435221 4287591270
3.2714803 -0.73532391 1.5053077 4289166675
3.2424791 -0.67619336 1.5163757 4288705111
3.2035172 -0.63500059 1.5113349 4288644199
3.1741745 -0.58868921 1.5211377 4288649876
3.2806253 -0.56530023 1.5166825 4289043861
3.3082571 -0.53074753 1.5229838 4286536794
3.2885911 -0.47582018 1.5153201 4286205252
3.305074 -0.47322285 1.5451251 4287191370
3.2410026 -0.42347169 1.5182612 4287191883
3.2577562 -0.4304229 1.5253462 4286141519
3.1982729 -0.3611201 1.5006356 4286601032
3.2133844 -0.36905086 1.5291506 4284958535
3.2412088 -0.32285476 1.5305085 4285483848
3.2742827 -0.30148172 1.5449344 4285748822
3.4268224 -0.3019278 1.5048026 4291146403
3.2768335 -0.29962981 1.5122991 4287456348
3.3423274 -0.2936132 1.5474948 4287655527
3.4006693 -0.29517245 1.5254726 4287654492
3.4028828 -0.24010813 1.5115556 4288971124
3.3846366 -0.17457926 1.5358416 4289241245
3.3631244 -0.13330746 1.5274737 4289108887
3.4321558 -0.116759 1.521129 4288643452
3.4729528 -0.074080586 1.5145574 4289891977
3.4459598 -0.025728345 1.5045551 4290022792
3.4224639 0.014209569 1.5073836 4288377968
3.4432187 0.11105335 1.5401965 4289240470
3.3079345 0.18312144 1.5194956 4289569435
3.3577104 0.15704244 1.5229242 4289240728
3.3107994 0.20448565 1.520932 4289372572
3.3589716 0.22961068 1.5187454 4289108378
3.3921745 0.27913791 1.5329567 4290227878
3.4065287 0.25414276 1.5385307 4289174683
3.295146 0.33875814 1.5049326 4290491049
3.3347335 0.32060266 1.5321921 4290359722
3.3613248 0.30744594 1.5094306 4290029986
3.2479193 0.39730465 1.5185745 4289963935
3.2954841 0.35808066 1.5382972 4289832607
3.2455349 0.43997777 1.5180084 4289963676
3.275039 0.47860333 1.5309081 4289504664
3.2841825 0.51008046 1.5242 4287858047
3.3042746 0.51644576 1.524484 4287528567
3.3592286 0.53628898 1.5281641 4287463548
3.4145961 0.57087445 1.5224394 4287923323
3.4386683 0.60843867 1.5219772 4288121221
3.4591608 0.62911236 1.5304431 4288252803
3.472862 0.66154677 1.5363576 4288121728
3.4968753 0.7047987 1.5465379 4288056186
3.4902511 0.75484538 1.5140657 4286672481
3.5473487 0.79403156 1.5446472 4288120698
3.5533423 0.83871895 1.5476514 4287924092
3.5226183 0.9394058 1.5141257 4287594864
3.5691638 0.97972232 1.5326955 4287333487
3.5915508 1.0419496 1.5422919 4287070059
3.5923953 1.1760067 1.5215189 4284234794
3.5467618 1.2473738 1.5054147 4283974182
3.5628381 1.2275856 1.5111761 4283972397
3.5745533 1.2605073 1.5391312 4286938227
3.5375109 1.3106973 1.5029533 4286475611
3.5804973 1.3048252 1.5421107 4286806896
3.588176 1.3503494 1.5227885 4285818714
3.5915167 1.447733 1.5332508 4286479211
3.6318982 1.4007092 1.5401709 4286412642
3.5274556 1.4820961 1.5094389 4287267959
3.0540924 1.5431888 1.5255034 4288518295
3.1202388 1.5413375 1.5454607 4287862149
3.154999 1.5445904 1.527698 4288189062
3.2183993 1.5282214 1.5484496 4287991424
3.3715363 1.5269186 1.507725 4287662979
3.4556441 1.5171894 1.5147978 4287596668
2.9629943 1.5970641 1.5313501 4289441197
3.0123076 1.5673286 1.5305352 4289572011
3.1932011 -1.4114357 1.5569925 4286548599
3.1918988 -1.3709205 1.5643746 4285035373
3.2003441 -1.3464857 1.5836821 4285890406
3.1627626 -1.2845569 1.5783672 4283520853
3.151608 -1.2304143 1.5848392 4284310624
3.1170423 -1.1703171 1.5617974 4280566369
3.1139781 -1.1329165 1.5568815 4278988127
3.0761116 -1.0623384 1.5683875 4278867847
3.0338345 -0.99489754 1.580304 4279656062
3.0734606 -0.96792489 1.5751991 4282667369
3.1045299 -0.91865873 1.5794088 4287600026
3.1233356 -0.86383903 1.5737239 4286678157
3.1290057 -0.82156885 1.5765656 4287070076
3.1312213 -0.76606822 1.5778828 4287993489
3.3194788 -0.76424241 1.571624 4289823061
3.1762636 -0.72878945 1.5914428 4288253563
3.2789497 -0.72676259 1.577224 4291602831
3.2219939 -0.65129232 1.5978581 4288843118
3.2564807 -0.68631172 1.556365 4289037915
3.1976507 -0.62968957 1.5645058 4288712048
3.189286 -0.57821012 1.5567479 4288782234
3.2954764 -0.57954681 1.5628321 4289109403
3.3546031 -0.57786453 1.5768558 4288384648
3.361475 -0.53253913 1.568619 4286599750
3.3216145 -0.47154212 1.5866945 4287725170
3.2740028 -0.41814613 1.577642 4288190867
3.269979 -0.38227403 1.5761585 4288979612
3.2491419 -0.34002626 1.5673133 4288979097
3.2794755 -0.32959116 1.5883183 4289242529
3.3100386 -0.29277337 1.5717825 4285353817
3.3519814 -0.29251575 1.5899019 4287593593
3.442992 -0.29509091 1.5762413 4287788400
3.4848142 -0.27826619 1.5760055 4286211930
3.5052052 -0.27410424 1.5964925 4286014816
3.442121 -0.21927452 1.5944223 4289240729
3.3832448 -0.15556252 1.5932256 4288780692
3.4091344 -0.19499671 1.5573335 4289306778
3.4181457 -0.12781027 1.5618504 4289240731
3.4782939 -0.07458058 1.5815884 4289438365
3.4738507 -0.025028169 1.5626929 4289503897
3.4719479 0.046481073 1.5510446 4289306265
3.5263629 0.031520367 1.5968316 4289044117
3.4946728 0.075240016 1.5725142 4288978323
3.4276226 0.11123677 1.580072 4289175194
3.3545868 0.15967375 1.5725688 4289306531
3.3612654 0.20371616 1.56455 4289110170
3.4049268 0.22100079 1.5870543 4288912022
3.4293141 0.26214164 1.5901291 4289899174
3.3409681 0.32755136 1.5796111 4289964450
3.3735142 0.30079418 1.5820559 4289963937
3.287287 0.37793049 1.5789496 4288780694
3.3086271 0.35233369 1.5991435 4288386720
3.2761686 0.42047665 1.5684048 4289043088
3.3085783 0.47251162 1.5780555 4287068533
3.3302538 0.5023194 1.5877305 4288056710
3.3518491 0.53318673 1.5862464 4288188293
3.3747654 0.56531495 1.568444 4288384389
3.4721332 0.60393 1.5697033 4288449924
3.5212176 0.64614803 1.5787009 4288252806
3.5282831 0.72490978 1.5767719 4287858814
3.5726924 0.79164594 1.5897304 4288121218
3.5993152 0.83737314 1.5892568 4287791992
3.6038809 0.8714112 1.5915451 4287660920
3.5738647 0.92791855 1.5686665 4287529591
3.6130104 0.9394874 1.5961214 4287464311
3.5898352 0.99711549 1.5875772 4287331951
3.6190977 0.98487139 1.5991726 4287660153
3.6198897 1.0377002 1.5962787 4287200878
3.6164711 1.0881666 1.5526166 4286937447
3.6543779 1.0930582 1.5989184 4287200622
3.6409326 1.1236185 1.5625973 4286872424
3.6322489 1.1744587 1.5718025 4287003243
3.6106181 1.2385702 1.5682337 4287069038
3.632411 1.2887315 1.5852476 4286611312
3.6321764 1.3448479 1.562655 4287331953
3.665875 1.3830523 1.5762396 4286806890
3.6457098 1.4457519 1.5694386 4286544750
3.7006493 1.4219255 1.5902491 4286610281
3.5748198 1.4856464 1.5769267 4287071096
3.6292818 1.4746759 1.5867335 4287267957
3.1450734 1.5368721 1.5864828 4287927184
3.1538944 1.5311375 1.5504353 4287991681
3.2001386 1.5225673 1.5811094 4287926911
3.3092203 1.5303221 1.5563303 4287991172
3.3801675 1.5262684 1.5756377 4287663489
3.4044595 1.5314553 1.5858443 4287597190
3.4640732 1.5154099 1.5555084 4287794052
3.5114777 1.5011219 1.563175 4287596417
2.9478056 1.5830481 1.5613812 4289703332
3.0223737 1.5728252 1.5781729 4289637542
3.0818386 1.5594466 1.5732327 4289308067
3.2199705 -1.4298067 1.627023 4286941313
3.2154365 -1.3730377 1.6212819 4286810500
3.2015657 -1.325677 1.6074042 4286083700
3.1957641 -1.2878438 1.6279076 4286614140
3.1640553 -1.2189864 1.6247163 4283064948
3.148237 -1.172613 1.617411 4279186006
3.127193 -1.1303002 1.61883 4278989671
3.0751555 -1.0690494 1.6162632 4279127947
3.0702176 -0.96662736 1.6104684 4284244086
3.1291258 -0.92537808 1.6241717 4287730322
3.1520472 -0.89424682 1.609131 4287665295
3.1954246 -0.82650614 1.6297591 4287993229
3.2026646 -0.77252364 1.6333882 4288256145
3.2363253 -0.72676897 1.6228359 4289698699
3.23564 -0.68115866 1.6038787 4290750083
3.1665204 -0.61026186 1.6282345 4288716190
3.2037439 -0.6443646 1.6120164 4288909450
3.1735177 -0.5733813 1.6039324 4288715931
3.250206 -0.57260001 1.6110975 4288650652
3.3267615 -0.5828281 1.628402 4288913569
3.410368 -0.57548046 1.6305081 4287595131
3.3876796 -0.53398967 1.6032983 4285679674
3.3652236 -0.49612689 1.6328278 4289505959
3.3401895 -0.44718266 1.6297263 4289243298
3.2948902 -0.38258374 1.6099012 4289243047
3.3196549 -0.39326382 1.6324289 4289045153
3.315465 -0.3374483 1.6271143 4289110692
3.3781917 -0.30874717 1.6360978 4288847773
3.4575922 -0.29957604 1.6476465 4287791747
3.5226765 -0.28185809 1.6277854 4287066993
3.4494832 -0.21365821 1.6447666 4288714395
3.4169929 -0.1733357 1.6251199 4288714650
3.4041505 -0.13885081 1.6023839 4288582802
3.4659522 -0.11231261 1.610642 4289240986
3.5088992 -0.074365795 1.6361325 4289438876
3.5192156 -0.010819972 1.6292822 4289174936
3.5386403 0.025877833 1.6378057 4289109656
3.4838629 0.073486924 1.626868 4289043607
3.4361904 0.1059503 1.6301248 4289504156
3.4068472 0.1581012 1.617862 4289175450
3.431474 0.20991093 1.6290164 4288977818
3.4242392 0.25663626 1.6262681 4289504675
3.3714635 0.31236929 1.6341121 4288846749
3.2944961 0.39551729 1.6263219 4287727755
3.3246317 0.36233628 1.6359851 4287464844
3.2973311 0.41665244 1.6277428 4287793291
3.3257108 0.43445152 1.6406995 4288055948
3.3338933 0.46532983 1.6260695 4287727489
3.361474 0.49751222 1.6236188 4288254089
3.4168301 0.56359148 1.6145185 4288188037
3.4686573 0.60140622 1.61418 4288253318
3.5201244 0.63490772 1.6176519 4287989886
3.4942281 0.66604078 1.6372387 4287923840
3.5196807 0.69691849 1.6096733 4288187522
3.4997706 0.70344424 1.6322724 4288055932
3.5351803 0.74480438 1.6205453 4287924351
3.5676262 0.77778542 1.6344371 4287858557
3.5837595 0.81279153 1.6180346 4287924091
3.6099522 0.83895594 1.6330338 4287726455
3.6110444 0.86953557 1.6299098 4287923323
3.5242932 0.94439006 1.6297531 4287529842
3.5786211 0.90103269 1.6188786 4287464056
3.5343721 0.9836334 1.6286787 4287266930
3.566047 1.0127318 1.6422695 4287135859
3.6373143 1.0683899 1.6489831 4286872688
3.6700127 1.0782398 1.6207806 4286740852
3.6458755 1.1303849 1.6256472 4286872683
3.6072164 1.1699378 1.6132954 4286938474
3.569972 1.2453803 1.6176429 4286807660
3.6151009 1.2413162 1.6010822 4287331951
3.6211193 1.28619 1.6040988 4287004016
3.5789053 1.3009894 1.6219908 4286742124
3.6262512 1.330364 1.6183525 4286938480
3.6746669 1.3422152 1.6104716 4286938478
3.6489654 1.3663116 1.6397735 4286807406
3.6815131 1.3828505 1.6413347 4286938482
3.7118301 1.3778651 1.6177139 4287070053
3.684478 1.4314253 1.6471151 4286610549
3.7333546 1.4213301 1.6363634 4286610286
3.588918 1.4790821 1.6321646 4287334266
3.617064 1.4710137 1.6165417 4287136632
3.673378 1.4599518 1.6214092 4287004536
3.1805763 1.543999 1.633003 4287927437
3.2441063 1.5316774 1.6215093 4288451470
3.2900782 1.5241164 1.6004487 4287729543
3.3518491 1.5181576 1.6169503 4287663498
3.4830184 1.5224993 1.6131574 4287531645
3.5441172 1.5057899 1.6215844 4287531136
3.0987797 1.5571195 1.6275902 4289110682
3.1845117 -1.4177455 1.6681836 4287139183
3.2052357 -1.4063562 1.6550122 4287138426
3.1900241 -1.3805405 1.6632439 4287203200
3.1957414 -1.339867 1.6622578 4287268996
3.1846755 -1.2836746 1.6571209 4287138176
3.1735795 -1.2292243 1.6633753 4284117116
3.1456859 -1.1744646 1.6500467 4279120748
3.2855854 -0.80727088 1.6952872 4288453782
3.2623265 -0.72216141 1.661574 4290232774
3.22719 -0.6724782 1.6764781 4288909460
3.1910737 -0.58627295 1.662276 4288846757
3.2446439 -0.57663876 1.6822727 4288846246
3.2925663 -0.5719105 1.6649394 4288453532
3.3481128 -0.5542655 1.6884792 4288848290
3.3808033 -0.57342118 1.6600443 4288914082
3.386889 -0.50401783 1.6737711 4289243049
3.3672025 -0.47783828 1.6864047 4289110951
3.3364356 -0.43989456 1.6975429 4289044389
3.377388 -0.42998266 1.6816206 4288979876
3.2267756 -0.37646532 1.6911734 4287859852
3.278182 -0.39516795 1.6931758 4288913060
3.3176661 -0.38480377 1.6774552 4289044894
3.2175465 -0.32687163 1.6756706 4288253595
3.2689672 -0.3439219 1.6663353 4288847515
3.3346436 -0.32761317 1.6856629 4288782241
3.390938 -0.32895422 1.6884124 4288782241
3.4313238 -0.31895447 1.6951327 4288913568
3.2297547 -0.29788327 1.6816357 4288055184
3.2763608 -0.29922736 1.6926372 4288385942
3.5183213 -0.28807303 1.6702756 4288846749
3.4837415 -0.23762 1.6715769 4288845211
3.44347 -0.16726691 1.6779848 4288453022
3.4594486 -0.11092907 1.6579249 4289109916
3.5165391 -0.064320147 1.6682394 4289175193
3.534045 -0.026046753 1.6762103 4289175193
3.5118151 0.033152312 1.6702582 4289109147
3.4881496 0.080685914 1.6760964 4288977566
3.4585497 0.14542836 1.66357 4289175192
3.4640899 0.22445109 1.6724687 4288781211
3.4206381 0.29456925 1.6864583 4288387483
3.3665633 0.34653366 1.684931 4286938756
3.3166392 0.38939774 1.6807752 4287266425
3.3343685 0.41618294 1.6854243 4287793025
3.3704922 0.4635275 1.6873646 4288189066
3.396903 0.50394368 1.6506112 4288122503
3.4400253 0.52727568 1.6699353 4288123016
3.4749112 0.59355426 1.6652048 4287990399
3.5069559 0.63061625 1.659755 4287924093
3.4942758 0.68109626 1.6663038 4287858810
3.5137374 0.69595945 1.6923578 4287925118
3.5409477 0.74196041 1.6696644 4287990144
3.5937221 0.79092491 1.6730872 4287793024
3.6313722 0.83270252 1.6855075 4287595644
3.5666795 0.89901775 1.6822159 4287595129
3.6172996 0.86699986 1.6799046 4287661175
3.548413 0.94267434 1.6863757 4287136631
3.5679994 0.99201578 1.6875684 4287070322
3.6180372 1.0250657 1.6936816 4287267192
3.6549306 1.1415268 1.6868181 4287201389
3.6251054 1.186795 1.6660206 4286938991
3.6579916 1.1643497 1.6883523 4286938733
3.6082957 1.2262492 1.6681501 4286676340
3.5733109 1.2768998 1.6540048 4286675821
3.6235442 1.2822372 1.6985934 4286872680
3.612824 1.344941 1.6558113 4286807663
3.6416683 1.3782489 1.6759925 4286741104
3.6622434 1.4331594 1.6813171 4286741878
3.5725064 1.4953119 1.6769428 4287399806
3.6213748 1.4689348 1.6879029 4287268475
3.1950784 1.5364878 1.6806271 4287467667
3.2277036 1.5451442 1.6655116 4288254607
3.2728679 1.5373511 1.6554843 4288059024
3.3499963 1.5260613 1.658939 4288056714
3.431906 1.5147628 1.65194 4287729541
3.4931629 1.5070074 1.6674131 4287400321
3.3200545 -0.81583822 1.7351081 4288321943
3.3065615 -0.78369129 1.7170079 4288585361
3.2819421 -0.74291515 1.7014638 4287857540
3.2891049 -0.57442343 1.7092277 4288912798
3.3126092 -0.55415666 1.7244298 4288913574
3.3538494 -0.52290899 1.7189634 4289176999
3.3157139 -0.47541285 1.7242212 4288979366
3.2637448 -0.42559409 1.7088964 4287665046
3.3735383 -0.30205607 1.7155353 4288781728
3.4753597 -0.31113982 1.7211975 4289045152
3.3292217 -0.27556041 1.7312487 4287792780
3.3881621 -0.25056005 1.7459906 4288584342
3.4190335 -0.27696037 1.7369704 4288913059
3.4933894 -0.28268349 1.7476819 4288847521
3.524924 -0.27975854 1.7271619 4288715930
3.4320633 -0.21633577 1.7433425 4288321185
3.4827533 -0.21762496 1.7251427 4288451737
3.5217495 -0.22970498 1.7368152 4288452761
3.4718468 -0.16173379 1.736354 4288714906
3.3350735 -0.12548667 1.7440735 4286675579
3.4735041 -0.1081267 1.7274728 4288781471
3.3442309 -0.08822763 1.7485864 4286739833
3.5041137 -0.067484438 1.717829 4288584344
3.333138 -0.039566994 1.7433528 4286412918
3.5301731 -0.02677387 1.7298629 4288978330
3.338994 0.0040901303 1.7462876 4286346109
3.385689 0.0048078299 1.7456881 4286609018
3.5263925 0.021847665 1.728518 4288912282
3.346313 0.05866158 1.7499566 4286347645
3.3860593 0.07328257 1.7460985 4286608760
3.5174112 0.080442905 1.721869 4289174939
3.3422666 0.12701678 1.7481734 4286673787
3.3753936 0.13249046 1.7412276 4286806142
3.4939806 0.13618386 1.7027793 4289174941
3.3452778 0.18230915 1.7497642 4286280059
3.5015888 0.19291401 1.7065929 4288714903
3.3167632 0.23244089 1.7361248 4285885291
3.356029 0.21097076 1.7398072 4286411642
3.42869 0.24794436 1.7437844 4286609266
3.4870088 0.23051155 1.7003324 4288781213
3.5047896 0.23278862 1.7398317 4288715418
3.3196435 0.25391626 1.7375685 4286280829
3.3570974 0.26274544 1.7404926 4286609009
3.4260163 0.29375637 1.742731 4286742131
3.461448 0.27213448 1.7358687 4288453528
3.3590178 0.32538351 1.7397189 4286281330
3.3386166 0.38399613 1.7245922 4286017127
3.3413298 0.41181129 1.740943 4286213733
3.359767 0.41026288 1.734744 4286214256
3.368639 0.47355136 1.7335386 4285951082
3.3483415 0.50544536 1.7445602 4286147695
3.383939 0.50180352 1.7012517 4287399295
3.4041877 0.54698527 1.7183988 4286214507
3.4728618 0.54509914 1.7077297 4287859336
3.3736281 0.55990684 1.7409967 4285753955
3.4231977 0.59720588 1.7199266 4285227095
3.4613457 0.59927648 1.7078526 4287595902
3.4851367 0.63941211 1.7139962 4288122500
3.5231965 0.67702055 1.7255561 4287859584
3.565546 0.73494267 1.7234032 4287858814
3.59883 0.78392631 1.7305869 4287727482
3.6179891 0.82979262 1.7333908 4287464565
3.6144259 0.8717801 1.7302412 4287398775
3.568296 0.94077933 1.7417257 4286477160
3.4195161 0.97579587 1.7426566 4285358935
3.568547 0.98136759 1.7499423 4285951074
3.6688921 1.0739899 1.7039313 4287004273
3.6956482 1.1137239 1.7197361 4286938480
3.7092452 1.1678727 1.73405 4286807406
3.6285067 1.2496358 1.7003875 4286675307
3.6733141 1.221094 1.7192371 4286938476
3.6712329 1.2872655 1.7427838 4286543972
3.6375837 1.3173194 1.7049377 4286872172
3.6606467 1.3427542 1.7150388 4287134826
3.683744 1.3684506 1.725158 4287004787
3.7058728 1.3942518 1.7348636 4286412400
3.692028 1.4362664 1.7412587 4286610799
3.70895 1.417199 1.7364066 4286741361
3.5836914 1.491958 1.7295796 4287137403
3.6378641 1.4704895 1.7299569 4287071348
3.6649084 1.453802 1.7297845 4287071090
3.2953053 1.5407994 1.707842 4287860624
3.3973446 1.5353737 1.7020319 4287729034
3.4250929 1.5358049 1.7256575 4287794315
3.495321 1.5119953 1.7281699 4287466373
3.4030716 -0.20875835 1.7532269 4288190107
3.3656764 -0.19835985 1.758665 4286346106
3.4001665 -0.16106099 1.7520076 4287793805
3.4061594 -0.11637354 1.7550118 4287597455
3.3471749 -0.066281319 1.750062 4286478721
3.4047 -0.05789268 1.7545174 4286411640
3.4730964 -0.062547028 1.7513245 4288453019
3.4792008 -0.017032027 1.7543844 4288452762
3.4758227 0.030829787 1.7530096 4288453021
3.4439592 0.084204495 1.7502284 4288847257
3.5018089 0.072434068 1.7534498 4288978335
3.4484732 0.11785996 1.752491 4288583056
3.4828587 0.13400781 1.7607315 4289175197
3.5291028 0.13707185 1.7663953 4288913056
3.5509379 0.13415772 1.7523564 4288912791
3.3978999 0.16156501 1.7520336 4286477434
3.4575014 0.18517065 1.7570162 4287398016
3.5404058 0.17688036 1.7598083 4288912795
3.4423683 0.21113473 1.7500356 4287201149
3.4995375 0.2016651 1.7530843 4288584349
3.3470068 0.45793191 1.7512839 4286016358
3.4171493 0.61977267 1.7641816 4285754727
3.4613669 0.64859849 1.7607636 4285950563
3.4290199 0.67531884 1.7914128 4285950824
3.4692874 0.6884408 1.772377 4285819235
3.518605 0.69234961 1.752772 4286610032
3.4325094 0.72550142 1.7761016 4285688163
3.4766016 0.73666269 1.7683729 4285491294
3.5246072 0.73709923 1.7557805 4286675308
3.4342141 0.79776746 1.7866154 4285687390
3.4772284 0.79147804 1.7765485 4286148459
3.5399022 0.78167683 1.7630147 4286608233
3.4340909 0.8444894 1.7942809 4285884264
3.489424 0.83984518 1.7840046 4285424990
3.5459211 0.82655072 1.7660313 4286147686
3.4357769 0.89581829 1.7680023 4285687131
3.4772003 0.87992024 1.7692779 4285621087
3.5563879 0.87801874 1.7734933 4285424987
3.6312032 0.87400472 1.7695181 4287267446
3.3971829 0.94856173 1.7618299 4285424990
3.4085367 0.91290259 1.7746301 4285754463
3.5138321 0.9367764 1.763577 4285555552
3.5760105 0.90605778 1.7685668 4285491294
3.6056263 0.91583145 1.7504716 4287267705
3.3812497 0.96137774 1.7690644 4286014551
3.4039524 0.99525791 1.7577662 4285556327
3.510901 0.98070109 1.7624557 4285424730
3.6050684 0.96444309 1.7584609 4286938991
3.38695 1.0038836 1.7719219 4285752413
3.4361975 1.0401154 1.7619745 4285490264
3.5331068 1.0147111 1.7728899 4285293656
3.5729959 1.0284209 1.7796026 4285359193
3.6221037 1.0212951 1.7723819 4286149221
3.6803234 1.0329599 1.7806381 4286808182
3.3851843 1.0563976 1.7711999 4285687648
3.4666286 1.0640805 1.765125 4285423703
3.5435224 1.0923703 1.7781107 4285292375
3.5578444 1.0602907 1.7845546 4285030745
3.6184986 1.0766059 1.7889528 4285358678
3.6984863 1.0511212 1.7524792 4286807406
3.7202435 1.0688578 1.7803364 4286807409
3.372824 1.1077682 1.7653611 4285556314
3.430419 1.1248386 1.759577 4285096537
3.4546251 1.106075 1.7596813 4285096283
3.5221963 1.1343455 1.7684848 4285226322
3.5874243 1.1300871 1.775153 4285291868
3.6032441 1.1091087 1.7822176 4285422941
3.7271044 1.1107264 1.7654362 4287004016
3.3746009 1.1599431 1.7663487 4285424740
3.4254422 1.1554888 1.7685381 4285226838
3.4782929 1.1781383 1.7596869 4284898897
3.5037093 1.1974918 1.7602824 4284899670
3.5855002 1.1852016 1.7746211 4285557077
3.6092958 1.1542312 1.7852509 4285359699
3.6617692 1.1713984 1.7853366 4286740840
3.7371838 1.1685122 1.7865824 4286938481
3.3816524 1.2125195 1.7698832 4285556070
3.4326062 1.2088993 1.7721288 4285359453
3.4705539 1.2248371 1.7676654 4285227347
3.508101 1.2302346 1.7624834 4284832851
3.5947473 1.2270091 1.7712375 4285557597
3.6400683 1.2254016 1.7760044 4286017885
3.7040286 1.2159767 1.7660238 4286741100
3.3948035 1.281379 1.7764025 4284965478
3.4552691 1.2537475 1.7830631 4285228638
3.5240769 1.2720041 1.7814795 4285292119
3.6273308 1.2790296 1.782388 4285360214
3.6993887 1.2637116 1.7708299 4286478437
3.3801825 1.325629 1.769455 4285359713
3.4511518 1.3058002 1.7812831 4285424987
3.5308807 1.3400886 1.7849816 4285227346
3.6225011 1.3221517 1.7923026 4285228633
3.6737607 1.3303013 1.7918448 4285163348
3.7065947 1.317438 1.774442 4286675306
3.3527691 1.3620696 1.7563126 4285621332
3.4083862 1.3617576 1.7611296 4285227862
3.480366 1.3637426 1.7728707 4285030733
3.5120163 1.3909842 1.7651429 4286084205
3.6245189 1.3719283 1.7935302 4285624163
3.6698625 1.3743907 1.7904146 4286084456
3.7293434 1.362396 1.7807775 4286741617
3.3757226 1.4118476 1.7620474 4286214251
3.4115152 1.4240271 1.7628312 4286741363
3.4672132 1.4245579 1.76697 4286216810
3.5192964 1.4452616 1.7687917 4286874229
3.5899088 1.4264642 1.7781289 4286544757
3.6298165 1.4342685 1.7729088 4286741874
3.6768744 1.4206235 1.7819809 4286413687
3.7357974 1.408668 1.7839618 4286544245
3.3912754 1.470368 1.7751691 4287465082
3.435153 1.4797944 1.7742674 4287269247
3.5164623 1.493722 1.7752558 4287269248
3.5839462 1.4796072 1.7699581 4287136894
3.6352186 1.468569 1.7638052 4287136635
3.6722896 1.4536196 1.7683954 4286677103
3.342726 1.5207361 1.7518594 4287662482
3.3911359 1.5215769 1.7607201 4287990922
3.4776843 1.5308342 1.7667326 4287467144
3.7218602 1.0963798 1.8117113 4286676074
3.7621584 1.0770682 1.8049707 4286611060
3.6958044 1.1288834 1.8002746 4286610799
3.7669117 1.1125095 1.8073534 4286807665
2.6587934 -0.72255671 -0.85229695 4288914317
2.5836403 -0.66276395 -0.85772455 4289045392
2.6025465 -0.65552551 -0.85197711 4289244057
2.6532414 -0.67340004 -0.85220718 4289111697
2.3845024 -0.60827988 -0.85039455 4289243797
2.4816618 -0.61947107 -0.85176051 4289178004
2.5119281 -0.62657738 -0.8524431 4289178008
2.5738132 -0.62897331 -0.86035824 4289309338
2.6227884 -0.62076652 -0.86016726 4289440666
2.6657383 -0.61879033 -0.85547811 4289309080
2.1932991 -0.59481579 -0.86294454 4289638812
2.2234006 -0.5649389 -0.8570776 4289440921
2.2830987 -0.56547415 -0.85777479 4289375642
2.3227832 -0.56882411 -0.863545 4289375641
2.3713555 -0.57175499 -0.86035645 4289506711
2.4847565 -0.55056608 -0.86159635 4289703838
2.5229099 -0.57414365 -0.8587448 4289506973
2.5728922 -0.57373178 -0.85546625 4289572510
2.6315684 -0.5760839 -0.8622629 4289572511
2.6692755 -0.58437884 -0.85693163 4289441186
2.1793685 -0.52570641 -0.85500312 4289507224
2.2262855 -0.51834893 -0.86677706 4289704351
2.2688725 -0.52576274 -0.8645559 4289572508
2.335381 -0.53316897 -0.86613917 4289506712
2.3721542 -0.53254688 -0.86127847 4289704092
2.4225681 -0.53626031 -0.86197287 4289638045
2.5196915 -0.51791549 -0.85930538 4289704093
2.5617292 -0.52668637 -0.85666496 4289638562
2.6093714 -0.51939112 -0.8554607 4289770145
2.1348925 -0.48672542 -0.86565787 4289638810
2.1804347 -0.46808428 -0.86298329 4289770399
2.2304769 -0.46690258 -0.85504627 4289835939
2.2802773 -0.46863192 -0.85389638 4289704607
2.328444 -0.48947433 -0.85646963 4289506968
2.3773158 -0.47754404 -0.85440421 4289704096
2.4358501 -0.48194462 -0.85167003 4289506714
2.4958375 -0.46338376 -0.85162389 4289836191
2.5058999 -0.48187509 -0.85490537 4289901214
2.0923514 -0.44392493 -0.86316013 4289770914
2.1714311 -0.42373222 -0.85587966 4289836707
2.2126346 -0.4355754 -0.8532548 4289770403
2.2820156 -0.42300573 -0.85429478 4289507230
2.3196545 -0.41478345 -0.85315007 4289770145
2.3640165 -0.42286754 -0.85379535 4289836193
2.4077725 -0.44677529 -0.85349214 4289440157
2.6279302 -0.41828924 -0.85129809 4289901217
2.6720612 -0.43644148 -0.85081452 4289769889
2.711798 -0.44271755 -0.85230923 4289704608
2.0947795 -0.3927165 -0.85862291 4289836968
2.1366618 -0.37462103 -0.85615182 4289901987
2.1718283 -0.37354276 -0.85650414 4290033831
2.2279196 -0.37287 -0.85757083 4289968290
2.2995141 -0.38079345 -0.86126447 4289573020
2.3284836 -0.37025544 -0.85682172 4289770146
2.3671763 -0.3765471 -0.85536718 4289836192
2.1044993 -0.33940545 -0.85396856 4290099365
2.1729839 -0.32340914 -0.85258436 4290165157
2.2216341 -0.31863835 -0.85214227 4290230949
2.2835691 -0.32522607 -0.85578203 4289836192
2.3163424 -0.32995796 -0.8527081 4290098596
2.355866 -0.3357276 -0.85163921 4289835938
2.4453249 -0.32450274 -0.85177815 4289704351
2.4752758 -0.31222224 -0.85408849 4289704351
2.5312676 -0.31116605 -0.85671711 4289704093
2.5572476 -0.30593392 -0.85716462 4289572767
2.1180778 -0.27221537 -0.85285664 4290099107
2.1881456 -0.28239691 -0.86381304 4290230952
2.2235169 -0.26518643 -0.85629714 4290033572
2.2711041 -0.26784444 -0.85760748 4289967267
2.3133144 -0.25843495 -0.85069567 4289901728
2.3787625 -0.27193365 -0.85204846 4289967267
2.4260247 -0.28791139 -0.85253531 4289900959
2.4751396 -0.2794888 -0.86260945 4289900958
2.5224323 -0.26831391 -0.86252004 4289704606
2.5717862 -0.27371562 -0.86234587 4289704352
2.6011133 -0.26828927 -0.85501504 4289835164
2.1839695 -0.21991761 -0.86262542 4290033571
2.2255492 -0.21950707 -0.86271 4289967779
2.2744446 -0.22611935 -0.86077434 4290033061
2.3157926 -0.21870217 -0.85353804 4290098851
2.3637273 -0.22017229 -0.85402113 4290098595
2.4167593 -0.2308245 -0.85603064 4290098594
2.4887025 -0.21911085 -0.85650492 4289835423
2.5222473 -0.21829189 -0.86291248 4289967523
2.5761714 -0.21881364 -0.86002731 4289901217
2.600986 -0.23386824 -0.85528505 4289770145
2.1876838 -0.162882 -0.86291981 4290033571
2.2237561 -0.17680554 -0.86415023 4290033574
2.2772486 -0.17369917 -0.86231279 4290099108
2.3135259 -0.17646575 -0.85308176 4290164646
2.3694217 -0.17313397 -0.85805041 4290098600
2.4233446 -0.17407167 -0.8549971 4289967525
2.4847724 -0.1820181 -0.86686683 4290296488
2.5258996 -0.16911037 -0.85756463 4289967265
2.5677667 -0.17564425 -0.85759377 4290033316
2.1995506 -0.12389973 -0.86980402 4290099107
2.2315617 -0.12576039 -0.86766267 4290033574
2.2845585 -0.12444224 -0.86706036 4290164389
2.3272293 -0.12385853 -0.86372614 4290098339
2.3783057 -0.12280127 -0.86564678 4290033061
2.4315829 -0.12971377 -0.86487675 4289638045
2.4842019 -0.12926573 -0.85606742 4289770144
2.5201206 -0.13464212 -0.85454059 4290229673
2.1790907 -0.085365668 -0.861835 4290099108
2.2313707 -0.074105747 -0.86806792 4290230692
2.2803705 -0.075937904 -0.87200356 4290362281
2.3123808 -0.077109776 -0.86890745 4290361765
2.3801844 -0.079596654 -0.87225258 4290164643
2.4323967 -0.081490062 -0.86959743 4290164648
2.4783921 -0.076575741 -0.86229265 4290033318
2.5303688 -0.068291098 -0.85864073 4290032291
2.5563083 -0.052141868 -0.85915565 4290032033
2.1871812 -0.021765629 -0.86585772 4290033826
2.2151892 -0.022144817 -0.8622514 4290164388
2.2788146 -0.023047846 -0.86429989 4290164386
2.3328357 -0.016057603 -0.86169219 4290032034
2.3700602 -0.023089757 -0.85735565 4290163875
2.4279039 -0.033049803 -0.85907191 4290164388
2.4741843 -0.017302223 -0.85640216 4290229414
2.5178511 -0.017847674 -0.85762858 4290164130
2.570894 -0.029800214 -0.85854024 4290032287
2.6243827 -0.015509767 -0.85447133 4289900961
2.1963203 0.028961351 -0.86994821 4290164385
2.2170444 0.034180749 -0.86126262 4290033313
2.2720819 0.031809084 -0.86079323 4290098338
2.3282294 0.034077041 -0.86427599 4289834397
2.3544812 0.038382482 -0.85457414 4290032028
2.633074 0.015832294 -0.85066563 4289835169
2.6617126 0.036731154 -0.85154265 4289835678
2.708015 0.024653696 -0.85169524 4289769376
2.2352738 0.070614859 -0.86723608 4290230695
2.2730837 0.085356325 -0.87222773 4290032542
2.3299515 0.069277361 -0.85998613 4287200108
2.5293956 0.091391861 -0.85196829 4289375640
2.8505681 0.085182279 -0.85504442 4288517511
2.9102225 0.071250476 -0.8562355 4289241229
2.9579477 0.057663649 -0.85286003 4289307279
2.1435268 0.43334121 -0.85281169 4289638300
2.1433954 0.46884367 -0.85309023 4289638813
2.1502795 0.49881858 -0.85609478 4290033064
2.1708205 0.53231245 -0.85731703 4289507231
2.1499631 0.58430219 -0.85676539 4289572770
2.1715195 0.56845254 -0.85792589 4289638305
2.1385882 0.68771601 -0.85322481 4289704098
2.1742606 0.72783184 -0.86046404 4289441440
2.2043819 0.74518436 -0.8505314 4289507231
2.1491723 0.79801136 -0.85844195 4289309600
2.1749706 0.77440959 -0.86014706 4289572771
2.2043278 0.75979543 -0.85064602 4289704353
2.1444099 0.82473189 -0.85680532 4289112993
2.1651649 0.80394197 -0.85044897 4289638308
2.1436439 0.87425405 -0.85696304 4289375392
2.1672275 0.8766486 -0.85192704 4289244060
2.1376967 0.92864323 -0.85511494 4289375904
2.1717243 0.92168283 -0.85409564 4289178016
2.126539 0.97333497 -0.85111362 4289047967
2.1715913 0.95768136 -0.8543781 4289310887
2.1373816 1.0137532 -0.85578263 4288784798
2.1642756 1.0407118 -0.85949123 4288849821
2.1911554 1.0680215 -0.87031126 4288980894
2.2091036 1.0840493 -0.86646819 4288784542
2.1868572 1.1458127 -0.87659991 4288980885
2.2253199 1.1287931 -0.87681878 4288849560
2.1776209 1.1699883 -0.86590213 4288520853
2.2147872 1.1726322 -0.86091131 4288323475
2.92643 -0.80690736 -0.80305552 4287662967
2.5862617 -0.71114779 -0.84610546 4288914324
2.6696053 -0.71432638 -0.84214944 4288914062
2.7202473 -0.71258992 -0.82278854 4288716170
2.7793255 -0.70934772 -0.80845922 4288914320
2.8067865 -0.71377635 -0.80632669 4288650636
2.8652866 -0.7075541 -0.80833328 4288980116
2.9107828 -0.72084308 -0.81469089 4288585612
2.9507508 -0.71669108 -0.8244856 4288914577
3.0130825 -0.72363955 -0.82123584 4287005812
2.4175706 -0.65620381 -0.8390469 4289243284
2.4815955 -0.66562063 -0.84489751 4289176976
2.5202763 -0.66775364 -0.84144497 4288914319
2.5857296 -0.67474997 -0.82695043 4288914065
2.635654 -0.68131876 -0.84519643 4289046164
2.671068 -0.68144327 -0.83405626 4289177233
2.7141478 -0.67008352 -0.83198643 4289177237
2.767122 -0.68572581 -0.81980193 4289242773
2.8134265 -0.67993277 -0.80632687 4289045909
2.8588657 -0.66799158 -0.81135404 4289046165
2.9614706 -0.67690748 -0.8306542 4289111958
2.2743499 -0.60193664 -0.8497597 4289374618
2.3221638 -0.6146605 -0.84066123 4289375383
2.3909416 -0.62604582 -0.84317076 4289111445
2.4329236 -0.61784256 -0.82306325 4288980623
2.4767766 -0.60766166 -0.80970186 4288980108
2.5383534 -0.6342836 -0.83154857 4289111956
2.5896845 -0.61991793 -0.8184225 4289045904
2.6401641 -0.644526 -0.82491022 4289046162
2.6720877 -0.61763722 -0.81825668 4289308822
2.729104 -0.61928761 -0.81645918 4289375130
2.7824874 -0.63441503 -0.81567836 4289440152
2.8317764 -0.62559009 -0.81644475 4289440409
2.8629928 -0.61743712 -0.80539966 4289244059
2.9578989 -0.63242525 -0.82206523 4289309594
2.2702651 -0.57831669 -0.84844196 4289374618
2.3223677 -0.58782429 -0.84331048 4289375383
2.3812861 -0.57763022 -0.84802681 4289506714
2.4318464 -0.58459306 -0.84152782 4289243542
2.4886518 -0.58475214 -0.81767946 4289308562
2.5182223 -0.58069807 -0.81760639 4289045388
2.5737367 -0.56639254 -0.82547545 4289308820
2.6390839 -0.57305366 -0.83123112 4289441179
2.6768851 -0.58573961 -0.81912267 4289572508
2.7240319 -0.5803681 -0.81395054 4289572510
2.784914 -0.57745939 -0.81032687 4289703835
2.8499627 -0.5870344 -0.80506504 4289572508
2.8705928 -0.56426936 -0.80672288 4289703583
2.1262252 -0.50993621 -0.84723735 4289638299
2.3844435 -0.52209127 -0.84944248 4289769628
2.4308088 -0.53573108 -0.84469301 4289375384
2.4855163 -0.50722647 -0.84894079 4289638304
2.5207872 -0.52522361 -0.83365357 4289506458
2.5702786 -0.51599503 -0.84424311 4289703325
2.6312747 -0.52905267 -0.83368826 4289572251
2.6802769 -0.53744328 -0.81254876 4289572253
2.7358873 -0.53620875 -0.81345451 4289637789
2.7729511 -0.50622654 -0.81075382 4289768862
2.8240395 -0.52447653 -0.81472224 4289769374
2.8694775 -0.52728766 -0.81434512 4289638302
2.9245005 -0.5275631 -0.81500757 4289703579
2.0365729 -0.49481627 -0.84172946 4289704603
2.0743713 -0.49423918 -0.84650677 4289638554
2.3202634 -0.45836633 -0.847821 4289573023
2.3625968 -0.45381588 -0.83555353 4289638302
2.4327767 -0.49045819 -0.8408848 4289441179
2.4693973 -0.48650807 -0.84116548 4289573020
2.5218105 -0.48289934 -0.84145856 4289704094
2.5764978 -0.46614522 -0.84690821 4289835423
2.6185248 -0.47682372 -0.83378297 4289703837
2.6708786 -0.48786283 -0.82538921 4289638046
2.7205269 -0.47621331 -0.82519078 4289703838
2.773931 -0.46752062 -0.82912022 4289703838
2.8255911 -0.48701379 -0.81464863 4289703580
2.8632007 -0.46928626 -0.81449324 4289637788
2.9219885 -0.46522629 -0.80640602 4288256398
2.1924479 -0.40945795 -0.84796482 4289836194
2.2692261 -0.41787335 -0.84768975 4289835682
2.3260617 -0.43228242 -0.84719652 4289638814
2.3849468 -0.42054895 -0.84545863 4289638556
2.4277215 -0.42089015 -0.84040421 4289704350
2.473947 -0.43655127 -0.84196335 4289835423
2.5236523 -0.42399049 -0.83930606 4289703582
2.581084 -0.42738366 -0.84376687 4289704095
2.6166673 -0.42221779 -0.82029957 4289769118
2.6840432 -0.42072967 -0.82016557 4289506717
2.7233067 -0.41939887 -0.83306289 4289703839
2.7742028 -0.41376665 -0.82096946 4289703839
2.8295708 -0.42991528 -0.8175472 4289769118
2.889111 -0.43251306 -0.81368548 4289177492
2.9650247 -0.4327836 -0.80957806 4289703329
2.1605937 -0.35049441 -0.84562027 4289967266
2.2018218 -0.36286417 -0.84220761 4289704095
2.2711139 -0.37053549 -0.84351397 4289572766
2.3495688 -0.37689063 -0.84167033 4289704094
2.379334 -0.36483824 -0.84419775 4289770399
2.4270718 -0.37350172 -0.84213752 4289573018
2.4839478 -0.39438999 -0.83928329 4289506970
2.5063336 -0.36827481 -0.84105933 4289769629
2.5614984 -0.37470236 -0.84060746 4289769375
2.6179864 -0.36610016 -0.83447129 4289572252
2.6668761 -0.37512878 -0.82718045 4289572509
2.7309136 -0.38081139 -0.82410806 4289769118
2.7708492 -0.37459692 -0.81173331 4289637535
2.8385384 -0.38311654 -0.81672287 4289769631
2.8595777 -0.37133119 -0.80777252 4289769375
2.9067626 -0.36085925 -0.80980855 4287993220
2.1607211 -0.30397269 -0.83814794 4290098851
2.2171135 -0.31519997 -0.84235525 4289835935
2.2604117 -0.3198882 -0.84204876 4289835935
2.3136909 -0.31560159 -0.84551167 4289901474
2.3815775 -0.31907499 -0.8420468 4289638812
2.4257569 -0.32421866 -0.8420403 4289901471
2.4639144 -0.33658651 -0.84035188 4289769372
2.5256405 -0.32975125 -0.84282935 4289703579
2.5599403 -0.31841823 -0.83538622 4289638044
2.612164 -0.31907123 -0.82436931 4289572508
2.6698172 -0.32641143 -0.81596994 4289703582
2.7124138 -0.33234209 -0.81277841 4289769118
2.770299 -0.33923733 -0.82111079 4289966755
2.8209717 -0.31443006 -0.81002343 4289967010
2.8620858 -0.32529214 -0.80795979 4289901218
2.1340182 -0.28201771 -0.84090161 4290099366
2.2229674 -0.2734676 -0.84315366 4290032802
2.2761271 -0.26600876 -0.84645748 4289901731
2.3159685 -0.28151655 -0.84824669 4290032804
2.3857589 -0.27403632 -0.83937764 4289901473
2.4416156 -0.26525116 -0.83341795 4289835936
2.4720559 -0.28515092 -0.8422842 4289704094
2.506721 -0.27991748 -0.84227109 4289770142
2.5775037 -0.26847479 -0.83558309 4289703837
2.6277647 -0.27372772 -0.82620168 4289703581
2.6792657 -0.27325442 -0.81520224 4289703582
2.7229042 -0.27491334 -0.81319731 4289638302
2.7702026 -0.27218533 -0.81767088 4289834912
2.8200707 -0.27978289 -0.81549978 4289835680
2.87357 -0.27231312 -0.81044102 4289835424
2.9366169 -0.25437325 -0.80193627 4289835425
2.2830954 -0.22746357 -0.8484422 4289835938
2.4293633 -0.21841101 -0.82802922 4289769886
2.5217001 -0.23158604 -0.83355922 4289769630
2.5833898 -0.20888202 -0.82674259 4289834912
2.6364591 -0.22155999 -0.82910663 4289835167
2.6772141 -0.23193496 -0.84065068 4289900706
2.719142 -0.23180211 -0.8327868 4289901218
2.7804785 -0.2298568 -0.82930821 4289900962
2.8286414 -0.2257607 -0.8250671 4289835425
2.8805654 -0.2250144 -0.8189885 4289835425
2.2229581 -0.15836442 -0.84731108 4289967268
2.2694139 -0.16476241 -0.84493214 4289967777
2.318152 -0.16661067 -0.84436727 4290098596
2.4525199 -0.17534906 -0.82780647 4289704608
2.5237572 -0.18822198 -0.82431036 4289704093
2.5831733 -0.16518597 -0.84758198 4290032544
2.6214566 -0.16486226 -0.82252467 4289835425
2.6888926 -0.18438768 -0.82765675 4289769887
2.7142889 -0.17530084 -0.82474017 4289901218
2.7707276 -0.18922079 -0.82670158 4289966499
2.8028286 -0.16883825 -0.81092817 4290098085
2.8794162 -0.17250921 -0.81955194 4289901474
2.9313512 -0.17608021 -0.81088495 4289440921
2.9580507 -0.19898784 -0.80116707 4289835680
2.1892557 -0.10369718 -0.84439188 4290098853
2.2284882 -0.11103472 -0.83845776 4289967268
2.2845025 -0.12109587 -0.83843398 4290230182
2.373251 -0.13256471 -0.84580654 4290164903
2.4407957 -0.107048 -0.84788793 4290295719
2.4616804 -0.12620974 -0.81944692 4289770145
2.5178168 -0.12440912 -0.8244763 4289769631
2.5711217 -0.13224132 -0.82138431 4289769888
2.6291323 -0.11554096 -0.81802863 4289901218
2.6769128 -0.11205407 -0.81976479 4289966755
2.7231822 -0.13123891 -0.81853771 4290032292
2.7728081 -0.1316151 -0.81505996 4290032548
2.8335488 -0.13802065 -0.81699681 4289967268
2.8719223 -0.12365469 -0.80557078 4289900962
2.9343414 -0.13254663 -0.8057192 4289243541
2.1911573 -0.056260079 -0.84457654 4290099366
