# .PCD v0.7 - Point Cloud Data file format
VERSION 0.7
FIELDS x y z rgb
SIZE 4 4 4 4
TYPE F F F U
COUNT 1 1 1 1
WIDTH 1075
HEIGHT 1
VIEWPOINT 0 0 0 1 0 0 0
POINTS 1075
DATA ascii
3.540199 -0.67081672 -0.72682589 4281276169
3.5605536 -0.63157237 -0.72741854 4281079049
3.612937 -0.60125178 -0.73044544 4281144072
3.6128054 -0.56541514 -0.73071259 4281209876
3.5917189 -0.53221834 -0.70885336 4279503881
3.6125839 -0.50568753 -0.73115802 4279438607
3.5914872 -0.46685565 -0.7033959 4279372552
3.6124516 -0.46985105 -0.73142517 4279176199
3.6175454 -0.42263207 -0.72088611 4282459946
3.5490119 -0.35593802 -0.74295884 4285535252
3.5700514 -0.35795552 -0.72371489 4286977304
3.6191399 -0.37892658 -0.71753532 4287239443
3.5215878 -0.32193822 -0.72189349 4280425245
3.5910044 -0.3362188 -0.70437002 4284160288
3.4711807 -0.26178992 -0.73310691 4280230691
3.4885588 -0.22265719 -0.71979666 4279505422
3.4884119 -0.18812713 -0.73160601 4279242762
3.5143766 -0.17400867 -0.72164029 4279242248
3.5799344 -0.18122005 -0.70345914 4279832585
3.6762881 -0.15005825 -0.72268486 4281080855
3.7433188 -0.15287785 -0.7110585 4282134824
3.5482306 -0.14466882 -0.74453413 4279636237
3.5797012 -0.13418919 -0.73933965 4280292882
3.6321666 -0.12423465 -0.73827463 4281082402
3.654073 -0.10090136 -0.74292439 4281871904
3.7201905 -0.12741941 -0.7315138 4283320631
3.7890856 -0.10498895 -0.74526185 4283583803
3.8362117 -0.13166459 -0.7289052 4280952347
3.8851771 -0.1205878 -0.72544134 4279768332
3.9861319 -0.11082335 -0.73118913 4279439623
4.0651612 -0.11311232 -0.71875012 4279111430
4.1201973 -0.11463944 -0.70118248 4278913797
3.4680281 -0.0720663 -0.70529866 4282002457
3.5690525 -0.098386146 -0.74929053 4283778602
3.7200089 -0.078195401 -0.73188084 4283715126
3.7888997 -0.054852147 -0.74563569 4282328078
3.90996 -0.069818161 -0.74344122 4281869071
4.0380235 -0.085746884 -0.74092221 4279570694
4.148046 -0.088281229 -0.73362267 4279242242
4.2330008 -0.076286584 -0.73473483 4279964169
4.3229537 -0.063816488 -0.7361393 4280685577
4.3531003 -0.092945933 -0.71220034 4278848263
4.4159818 -0.0652899 -0.72272056 4280620556
3.6371319 -1.445523 -0.68030757 4287134295
3.6591082 -1.4300102 -0.6604045 4285489220
3.5119467 -1.3954501 -0.68013561 4285555263
3.5739706 -1.3965856 -0.66868991 4282919709
3.4336691 -1.3188026 -0.67671156 4281538569
3.4297106 -1.2765553 -0.67854989 4281603591
3.4206884 -1.2309564 -0.67108798 4281734918
3.45225 -1.2122109 -0.69272828 4281931783
3.4141667 -1.1759615 -0.66268045 4282128904
3.4720998 -1.1734358 -0.69708633 4282128646
3.4329751 -1.1258763 -0.66679347 4282326280
3.4718881 -1.1160725 -0.69751406 4282128901
3.4232991 -1.0774995 -0.6652844 4282326025
3.4517441 -1.0753336 -0.69374895 4282326281
3.4231136 -1.0323354 -0.6769464 4282391306
3.3884122 -0.97320229 -0.66671926 4282457353
3.4134624 -0.99563754 -0.68661243 4282391561
3.3648188 -0.92346865 -0.67283535 4282457099
3.3390791 -0.88542742 -0.6723792 4282522893
3.3601916 -0.87260318 -0.67678118 4282392075
3.381578 -0.83716106 -0.66652679 4282523404
3.4223187 -0.81737238 -0.67858064 4282392076
3.4607558 -0.80386043 -0.68638813 4282129163
3.4639814 -0.76630872 -0.66822559 4282393105
3.4771929 -0.73098844 -0.66341192 4282394134
3.509459 -0.7225585 -0.68515307 4281735435
3.4803367 -0.68185973 -0.66826296 4282130710
3.5092015 -0.65294892 -0.68567204 4281538830
3.4901896 -0.63762093 -0.65894288 4282789410
3.5297449 -0.61792624 -0.68225765 4281868053
3.5399492 -0.57671344 -0.66890711 4281015842
3.5709198 -0.58210498 -0.6984033 4280685076
3.5498221 -0.54320657 -0.67105889 4279438860
3.5707209 -0.52298367 -0.68702394 4279831819
3.5775864 -0.47649598 -0.66503865 4279701005
3.6176238 -0.4222396 -0.67294824 4282915619
3.6772227 -0.3807435 -0.6721701 4286516495
3.5289154 -0.30681565 -0.69238627 4284292126
3.5804749 -0.31124392 -0.6668902 4288159774
3.6120441 -0.33809325 -0.68457103 4285275687
3.6550865 -0.34211421 -0.66851646 4285669932
3.4821184 -0.26413038 -0.67581809 4284685338
3.5288675 -0.28329915 -0.66919291 4286648591
3.5181334 -0.22431724 -0.67925048 4282126347
3.5800366 -0.19283098 -0.66784269 4281994248
3.632443 -0.17184575 -0.6777761 4281601033
3.7663972 -0.15353587 -0.66553873 4279241992
3.81335 -0.15582512 -0.69909459 4279701512
3.88533 -0.1329594 -0.66101718 4278913799
3.9102845 -0.13410351 -0.69116533 4279045637
4.1482372 -0.11531417 -0.67847246 4278848263
4.3231492 -0.082313709 -0.65964639 4279636491
4.3530416 -0.063931875 -0.68358499 4280423690
3.5529368 -1.3644581 -0.61793292 4281800969
3.4727693 -1.3337092 -0.64994842 4282919711
3.5118513 -1.3486969 -0.63402492 4281735689
3.4241078 -1.2808346 -0.62982434 4282064402
3.3833907 -1.217013 -0.6189959 4281801229
3.414454 -1.2434777 -0.63958967 4282984993
3.3767264 -1.1737771 -0.62186855 4282458646
3.3765616 -1.12915 -0.62220126 4282589974
3.4139533 -1.1081082 -0.64059907 4283905059
3.3705349 -1.071359 -0.61033064 4281603592
3.4138281 -1.0742656 -0.64085138 4283641887
3.3946567 -1.0194767 -0.62267172 4282326798
3.4137034 -1.0404236 -0.64110374 4283444762
3.3762341 -0.97305924 -0.62338126 4282524176
3.3393106 -0.91804081 -0.6058442 4281603847
3.3572874 -0.92323875 -0.63132638 4283443735
3.33917 -0.88501513 -0.61713898 4282589456
3.3634169 -0.86187708 -0.61813551 4282129678
3.3801913 -0.82908422 -0.63083518 4282590485
3.4129062 -0.81463945 -0.62019986 4281210376
3.4317789 -0.78034317 -0.62069893 4281736206
3.450676 -0.75544125 -0.6276173 4281210378
3.4605732 -0.72323745 -0.61824065 4281144327
3.4654064 -0.67849684 -0.61949217 4280947719
3.4802425 -0.63545984 -0.62250048 4280816393
3.5091255 -0.60610926 -0.62794703 4280685322
3.5340252 -0.57777655 -0.62561476 4280094480
3.5710316 -0.56959265 -0.6039356 4281014042
3.5498176 -0.53129411 -0.64764649 4279766801
3.5834546 -0.52909076 -0.62059587 4279505168
3.6127806 -0.50479507 -0.61157298 4282066982
3.6231306 -0.47045428 -0.62557673 4279768085
3.6334796 -0.43590599 -0.6397211 4280491047
3.6627846 -0.42325911 -0.62882209 4284421916
3.6883039 -0.38159955 -0.62543702 4286779408
3.6330554 -0.31566641 -0.62858897 4289011743
3.666147 -0.34291705 -0.63415241 4286331458
3.5351949 -0.26804191 -0.63926691 4289535256
3.569921 -0.27451524 -0.6179561 4290913828
3.6119859 -0.28977576 -0.61317629 4291242281
3.5182099 -0.22397006 -0.63272417 4288814620
3.5285993 -0.18958215 -0.62315422 4283435784
3.5800269 -0.16879442 -0.62060237 4281862919
3.7204437 -0.15129595 -0.63277537 4279438342
3.6764882 -0.14914979 -0.60094786 4281273351
3.8613756 -0.13185579 -0.63136357 4279044615
3.9104118 -0.1335237 -0.61347479 4279634954
4.1202865 -0.11423218 -0.64660776 4278979849
4.218842 -0.11700406 -0.6201008 4279505936
4.2782016 -0.076353185 -0.61504012 4280227599
3.5880551 -1.3777061 -0.57651538 4282129166
3.4146719 -1.2768986 -0.58287203 4281537795
3.3864751 -1.221572 -0.57842249 4281537285
3.3403034 -1.1716226 -0.57080722 4281669382
3.3221633 -1.1322931 -0.56797493 4281538051
3.3327827 -1.0853481 -0.57241011 4281538053
3.3673973 -1.0588887 -0.56528348 4281669383
3.376544 -1.024026 -0.58050781 4281734919
3.3395083 -0.95828652 -0.57608098 4281735176
3.3576021 -0.97821927 -0.56426692 4281669896
3.3303585 -0.91527808 -0.57112604 4281604103
3.3301773 -0.87130547 -0.58250266 4281538055
3.3758709 -0.87208968 -0.56823778 4281407496
3.4131844 -0.85925692 -0.55210525 4281538828
3.3755441 -0.83876264 -0.59079683 4281340935
3.4272904 -0.82906717 -0.57163513 4281341448
3.4509618 -0.81213272 -0.58151674 4281275913
3.4318619 -0.77337676 -0.55585605 4281473033
3.4507933 -0.76650697 -0.58185679 4281341447
3.4606483 -0.722929 -0.57246572 4281275912
3.4654815 -0.67815459 -0.57361817 4281013512
3.4803607 -0.64665508 -0.57637477 4281013512
3.5218527 -0.61722064 -0.57649893 4280685577
3.5851469 -0.58743668 -0.57452786 4280357133
3.6235638 -0.5659039 -0.57695878 4279504399
3.6339142 -0.53166658 -0.59089226 4279374350
3.6814101 -0.47777948 -0.57465178 4279638045
3.6775622 -0.42865947 -0.57451481 4285542449
3.6663811 -0.3788482 -0.57313401 4286321943
3.6331704 -0.32328749 -0.57640767 4288757567
3.6662464 -0.34246337 -0.57335663 4285089093
3.5804551 -0.26317137 -0.57247919 4288616473
3.6120448 -0.28950801 -0.57730079 4289470499
3.488744 -0.21008401 -0.5812673 4290321694
3.5218484 -0.23541981 -0.57488263 4289075483
4.2337661 -0.20094992 -0.55156356 4279309584
3.4786594 -0.18642825 -0.57980645 4289338392
3.5181093 -0.16526693 -0.56326431 4288551963
3.7665615 -0.15279131 -0.56576538 4286716696
3.9105926 -0.15900594 -0.56148815 4282917924
4.1486211 -0.16937998 -0.5681721 4279703315
4.2636609 -0.17427532 -0.55568075 4279506193
3.6325321 -0.14700794 -0.56970298 4284878601
3.9354517 -0.1342776 -0.59133255 4281209359
4.2045159 -0.14405306 -0.57604563 4279769365
4.2734714 -0.12765123 -0.56681257 4279834901
4.2332025 -0.061133303 -0.58064336 4280883726
4.2783232 -0.090138219 -0.57248437 4280097811
1.9800068 -0.0098562622 -0.57357162 4283051289
1.9796357 0.022896018 -0.57376498 4283116825
1.9801084 0.075325295 -0.57433802 4282919959
1.9742515 0.12742449 -0.57307905 4282262805
1.8903871 0.1664075 -0.55537224 4282000408
1.9703838 0.15982163 -0.57221782 4281999892
3.6161864 -1.3881394 -0.52127212 4282129675
3.4179351 -1.2776654 -0.52687448 4281668869
3.3955405 -1.2245802 -0.54627073 4281668613
3.4193714 -1.2330208 -0.51615196 4281800712
3.3816285 -1.174798 -0.53316009 4281867020
3.4144266 -1.1747817 -0.50457776 4281932040
3.3731837 -1.1205491 -0.53001541 4281866763
3.4142179 -1.1183778 -0.50499851 4281800970
3.381247 -1.0742108 -0.53952539 4281669641
3.426703 -1.0735911 -0.51476747 4281801483
3.3947935 -1.0226572 -0.54777622 4281800971
3.4233739 -1.0311205 -0.51837224 4281867276
3.3671052 -0.9697693 -0.54366857 4281735434
3.4136989 -0.98309261 -0.5173009 4281801483
3.3759661 -0.92766076 -0.53422517 4281736203
3.4135089 -0.92660445 -0.50642836 4281669642
3.3883178 -0.89010835 -0.54029518 4281538826
3.4180353 -0.8715331 -0.51884747 4281604619
3.3940794 -0.80918103 -0.50444508 4281603849
3.4194601 -0.83053076 -0.52319795 4281605132
3.393955 -0.77552718 -0.50469595 4281538056
3.4129295 -0.78012282 -0.53010809 4281539853
3.3937891 -0.73065537 -0.50503063 4281341449
3.4174619 -0.71903354 -0.5256629 4281408269
3.431582 -0.68237364 -0.52246499 4281210635
3.4505076 -0.66342264 -0.52552813 4281013770
3.4704103 -0.63668948 -0.52497452 4280947722
3.5163574 -0.6220355 -0.52434808 4280750857
3.5503528 -0.61240214 -0.50603473 4280750857
3.6237755 -0.60152096 -0.52864784 4280159751
3.6782272 -0.58638173 -0.52454406 4279702799
3.6996758 -0.43496421 -0.52077007 4286650907
3.6994662 -0.3820143 -0.52932972 4285273362
3.6699204 -0.32635331 -0.53359294 4283175695
4.2050185 -0.25489095 -0.51952887 4279044615
4.2941208 -0.27458858 -0.50198179 4278980362
3.4888012 -0.2098254 -0.54661345 4285991176
4.14887 -0.22406088 -0.54029006 4278849033
4.2338638 -0.21474332 -0.52342361 4279045901
3.4687166 -0.18559237 -0.5436523 4287632660
3.7896934 -0.17869589 -0.54393589 4283441190
4.2337093 -0.17273557 -0.52373677 4279375377
4.204556 -0.12973078 -0.5204621 4279572756
4.204318 -0.069537774 -0.53019261 4280293649
1.9884015 -0.009664922 -0.53642428 4283115277
2.0320952 -0.010002153 -0.5213142 4283049741
2.0521102 -0.010145069 -0.51284689 4282983694
1.9732144 0.023196876 -0.52608281 4282852877
1.9716468 0.075415373 -0.52612412 4282458636
1.9816973 0.12821297 -0.5292356 4281867530
1.7574474 0.16738741 -0.51642519 4283319103
1.8994215 0.16731633 -0.53284806 4281867533
1.9174496 0.16894974 -0.51247793 4281539338
1.9824502 0.16104694 -0.52973205 4281736203
3.6592977 -1.4045705 -0.49117279 4282195727
3.6373103 -1.3958474 -0.46416137 4282195727
3.3773549 -1.2730212 -0.46475548 4281603588
3.4147973 -1.2648593 -0.48131892 4281669381
3.3772767 -1.2239019 -0.46288937 4281800454
3.386512 -1.1758404 -0.455553 4281865477
3.4192069 -1.1705555 -0.47705856 4281997063
3.4332926 -1.1244357 -0.47374249 4281865991
3.4330826 -1.0677174 -0.47416538 4281997064
3.4521852 -1.096527 -0.47662076 4281734406
3.418694 -1.0293466 -0.47246462 4281997320
3.4137731 -0.98275554 -0.47212878 4281800457
3.3946512 -0.94346124 -0.45852077 4281669642
3.4135444 -0.92185616 -0.47484159 4281603594
1.8634361 -0.89417136 -0.47061741 4288316270
3.3943193 -0.85371757 -0.45918995 4281406470
3.4133637 -0.87373608 -0.47670621 4281340935
3.3896732 -0.81905472 -0.47006163 4281472264
3.3940108 -0.77527577 -0.47100568 4281341193
3.393868 -0.74170566 -0.48248672 4281275656
3.4242074 -0.72118497 -0.47340995 4281210377
3.4556272 -0.67547101 -0.48044649 4281013514
3.4771967 -0.64524788 -0.47218138 4280750600
3.5199838 -0.63002306 -0.46653259 4280881930
3.5609152 -0.6139937 -0.47214255 4280619785
3.6637242 -0.60784602 -0.47381961 4280160008
3.733849 -0.59499586 -0.47073182 4279506191
3.8873582 -0.59418023 -0.46458256 4279243023
3.9752674 -0.56840229 -0.46223605 4279769881
4.1221633 -0.53530198 -0.45244583 4279769881
4.3546515 -0.40801266 -0.47919673 4278716424
4.4177651 -0.42852068 -0.45677137 4278716422
4.3652091 -0.37043551 -0.46136633 4278716423
4.2943249 -0.31697947 -0.47323126 4279638547
4.3244343 -0.34789822 -0.47632289 4278782470
4.2791672 -0.27341577 -0.47189507 4278980106
4.2339854 -0.22843209 -0.48126593 4278913801
4.1768012 -0.16979755 -0.46137241 4278914056
4.2048392 -0.18971603 -0.48288801 4279243022
4.1486502 -0.12739548 -0.458588 4278914056
4.1766028 -0.12856174 -0.48933965 4279243790
4.0924029 -0.05779434 -0.45290571 4279701260
4.139101 -0.076992705 -0.47624648 4279703058
2.0462015 -0.0096674552 -0.45713151 4283049489
2.0568199 -0.0099985022 -0.4867624 4282983949
1.9899031 0.024979198 -0.47909179 4282852877
2.0051436 0.0039926227 -0.4613612 4282983694
1.9778551 0.075950786 -0.47533596 4282327308
1.9711651 0.12797228 -0.47417557 4281735946
1.485532 0.17319438 -0.45160288 4290495944
1.5470783 0.15937395 -0.4547343 4287400578
1.7349317 0.16572829 -0.46947187 4282330407
1.9175122 0.16923428 -0.47434798 4281473547
1.9635494 0.16003512 -0.47261563 4281604619
3.7946262 -1.4562482 -0.40892464 4282654479
3.6814041 -1.412751 -0.44543317 4282392082
3.7254992 -1.4296499 -0.42612216 4282523408
3.340884 -1.2587569 -0.41547644 4281603845
3.3407619 -1.2256485 -0.41572329 4281669382
3.3406188 -1.1851557 -0.41234234 4281668615
3.364857 -1.1643035 -0.42300183 4281800198
3.3894253 -1.1355743 -0.41890857 4281865990
3.4143281 -1.1140555 -0.42973962 4281865989
3.4331996 -1.0787222 -0.42865703 4281931269
3.4235229 -1.0304445 -0.42777625 4282062856
3.3948123 -0.97694725 -0.43580955 4281800457
3.4328825 -0.98788846 -0.41797778 4281865993
3.3946879 -0.94329351 -0.43606052 4281669131
3.413626 -0.9214853 -0.42515218 4281603850
1.8133423 -0.85768074 -0.4460763 4288845181
3.3943565 -0.85354996 -0.4367297 4281406472
3.4134505 -0.87334281 -0.42400533 4281340936
1.6572092 -0.80441529 -0.40750495 4285427540
1.7222667 -0.81939882 -0.40654555 4284370233
1.779327 -0.84710628 -0.43175194 4287527270
3.3852255 -0.817711 -0.43582144 4281537801
3.4132822 -0.82440311 -0.41684112 4281538315
3.3941073 -0.78624225 -0.43723154 4281538058
3.4273143 -0.77135408 -0.43032855 4281275657
3.4610388 -0.75605071 -0.41181621 4281275656
3.4318805 -0.72715485 -0.44263509 4281275658
3.4628937 -0.71991473 -0.41919851 4281210121
3.4807348 -0.68004304 -0.4263041 4280947722
3.5096598 -0.65086889 -0.40693161 4280619271
3.490612 -0.64743555 -0.42783123 4280619273
3.5305462 -0.63168627 -0.43290794 4280685066
3.5610361 -0.62537968 -0.42498583 4280619271
3.6135368 -0.62282246 -0.41934609 4280422407
3.678477 -0.60997665 -0.42707035 4280225544
3.700527 -0.61353225 -0.40513125 4280291339
3.815465 -0.60793489 -0.43053579 4279505677
3.937484 -0.60153002 -0.40540162 4278913546
3.8874211 -0.59389222 -0.42598563 4278848263
4.0274005 -0.58909345 -0.42815161 4279243539
4.0672946 -0.56830055 -0.44610912 4280033824
4.1223593 -0.57598495 -0.42485359 4280297509
4.2063098 -0.56011069 -0.41979501 4280363044
4.2352166 -0.53607053 -0.42289767 4279505936
4.2951312 -0.51547551 -0.42909941 4279504906
4.2950482 -0.48696733 -0.41509479 4279241994
4.3249812 -0.47627985 -0.43241593 4279176715
4.3549113 -0.46539533 -0.44993711 4278716677
4.3247399 -0.40467185 -0.41863328 4278716677
4.3548527 -0.43638131 -0.4213216 4278782470
4.2946286 -0.3733592 -0.41594186 4278716424
4.2054067 -0.30968654 -0.40773973 4278782217
4.2794461 -0.32960543 -0.42902303 4279045389
4.1772499 -0.26608333 -0.40533504 4278782470
4.2341585 -0.25612342 -0.43900365 4278716677
4.2642636 -0.28624693 -0.44190252 4278913803
4.149096 -0.22303578 -0.40292621 4278716677
4.2050529 -0.22645421 -0.43620554 4278716677
4.1489944 -0.19559281 -0.40313083 4278716677
4.176847 -0.16959117 -0.43371421 4278782470
4.2049499 -0.19864084 -0.43641293 4278782470
4.0926471 -0.11173721 -0.42540002 4278782470
4.1207466 -0.13986084 -0.4281055 4278716677
4.0384521 -0.056636512 -0.42018858 4279569676
4.0655499 -0.084008262 -0.42279553 4278847753
2.0322614 -0.0092487158 -0.42035243 4282918158
2.0592535 -0.0095686018 -0.4259325 4282917902
1.9931904 0.033274323 -0.42846996 4282852365
2.0110207 0.008673436 -0.42496929 4282918159
1.9739428 0.076225825 -0.42206553 4282327053
1.9667532 0.12809812 -0.42097935 4281604618
1.4440022 0.19763646 -0.41530329 4287861650
1.476271 0.17831312 -0.42548192 4287598474
1.5824516 0.16298603 -0.42301938 4287071357
1.7475791 0.16708182 -0.43823001 4281607449
1.7609413 0.16841653 -0.41824159 4281737756
1.9130989 0.16925059 -0.42253324 4281211147
1.9582943 0.15997984 -0.42593285 4281276682
1.4321053 0.22543265 -0.42048213 4287926667
1.4468765 0.26024029 -0.42743137 4287332721
1.4570582 0.28334123 -0.42175242 4286212690
1.4469637 0.33208558 -0.44128224 4288255628
1.4628837 0.32472375 -0.42395711 4285949517
1.4603548 0.3738637 -0.42629775 4285555275
1.4460094 0.43875507 -0.43504432 4284437053
1.4640174 0.42116249 -0.4198522 4284699708
1.3844907 0.47456801 -0.40972635 4283185957
1.4427614 0.47184348 -0.43353391 4283647281
1.4654987 0.47185758 -0.41142642 4283778348
3.3779807 -1.2650779 -0.37173072 4281603078
3.3683259 -1.22438 -0.374643 4281931527
3.3662391 -1.1747823 -0.37702408 4281800197
3.3802607 -1.1172161 -0.37686968 4281800197
3.4206026 -1.0781138 -0.38557619 4281865990
3.4602344 -1.0616957 -0.3703967 4281931783
3.4720936 -1.0241519 -0.37195256 4281997320
3.4328778 -0.9763754 -0.39535043 4281800714
3.4619176 -0.97309321 -0.36442053 4281800971
3.4326262 -0.90831381 -0.39585796 4281669644
3.4517376 -0.92691064 -0.37054235 4281603851
1.8318205 -0.86597067 -0.37785235 4285949009
1.8575643 -0.87814611 -0.35864559 4281740843
3.4325004 -0.8742829 -0.3961117 4281538057
3.4515715 -0.87895238 -0.36404827 4281472521
1.6982815 -0.8132416 -0.38398862 4280949530
1.7773703 -0.83998555 -0.3901999 4288054372
3.4323747 -0.84025198 -0.39636549 4281735435
3.4656484 -0.82536578 -0.37086707 4281472778
1.5721312 -0.7621451 -0.36062288 4282661432
1.6261828 -0.7889896 -0.38912231 4287398500
1.6547194 -0.79200286 -0.37416148 4281805354
3.4751818 -0.78186607 -0.38336417 4281275656
3.5101652 -0.7665379 -0.35960981 4281341964
3.520524 -0.73405445 -0.37256008 4281144585
3.5509319 -0.70524728 -0.36433557 4280947722
1.320004 -0.65976155 -0.35936838 4286808184
3.5237916 -0.67660093 -0.3850604 4280750857
3.5613074 -0.67202723 -0.36567646 4280619274
3.5716434 -0.63884485 -0.3906574 4280685066
3.6136401 -0.63450027 -0.38338152 4280487944
3.6676619 -0.63190258 -0.36488959 4280422151
3.7341032 -0.61894614 -0.37168804 4280225802
3.8385372 -0.61140621 -0.39502054 4280030997
3.8635902 -0.61529565 -0.3720206 4279965717
3.9250908 -0.61221635 -0.36509031 4279242252
3.9885919 -0.60912234 -0.35785186 4278848010
4.0810099 -0.59671569 -0.37981233 4279243539
4.1224265 -0.57567954 -0.38392246 4280099873
4.1783681 -0.5559727 -0.37551376 4280033826
4.2207284 -0.51986867 -0.37964505 4279045646
4.2350779 -0.47974649 -0.38126186 4278848010
4.2649822 -0.45504725 -0.38417217 4278782217
4.2648787 -0.42684361 -0.38438246 4278782470
4.2202129 -0.38041818 -0.38068488 4278782216
4.1494446 -0.30515963 -0.37483951 4278848263
4.1775513 -0.33494735 -0.37716183 4278716424
4.149343 -0.27771667 -0.37504414 4278848010
4.1211891 -0.23485573 -0.37281939 4278848006
4.0839548 -0.17417291 -0.37894407 4278782471
3.9737184 -0.10776296 -0.37360963 4278782470
4.0128374 -0.13541003 -0.3637467 4278848006
4.0657921 -0.13759528 -0.39547133 4278716677
3.8856475 -0.079248376 -0.35262477 4278913799
3.9606004 -0.081259973 -0.38565457 4278782217
1.9993469 -0.0085118525 -0.3671816 4283049741
2.0053456 -0.0085819019 -0.36828256 4283049486
1.9907857 0.026343657 -0.36968005 4282721294
2.0087273 0.011104388 -0.39568534 4282787087
1.9810258 0.076839626 -0.37108964 4282261516
1.9691439 0.12706377 -0.37378395 4281736202
1.4433737 0.19786926 -0.37204903 4287927700
1.4728163 0.18080442 -0.37697092 4287334787
1.521287 0.16759217 -0.37153214 4286742907
1.608935 0.16585355 -0.37692809 4287005821
1.7476648 0.16747072 -0.3861151 4281737756
1.7733624 0.16993035 -0.36233249 4281671960
1.9404814 0.16928662 -0.37327066 4281342219
1.9560266 0.16009729 -0.38652876 4281341961
1.4369888 0.22369047 -0.37785545 4287597957
1.454909 0.24762857 -0.36093742 4285752393
1.4492568 0.2753087 -0.39102033 4285751880
1.4644431 0.27743107 -0.37063426 4285817928
1.4660672 0.32545006 -0.3740319 4285751880
1.4635897 0.3750113 -0.37873396 4285554245
1.1947433 0.42736641 -0.36173066 4279504646
1.2037472 0.43055749 -0.35247061 4279241733
1.470898 0.42649078 -0.37211123 4285028414
1.2970941 0.45409623 -0.39261991 4282265119
1.3249964 0.46375725 -0.37020236 4282594081
1.4166799 0.48558056 -0.37223625 4283515175
1.4825375 0.47807264 -0.37461236 4284238898
1.190825 0.54463249 -0.35364214 4279570437
1.1924523 0.57693511 -0.35571125 4279175683
1.2011769 0.58515984 -0.35304439 4278978816
1.1921237 0.60065681 -0.35055414 4279175940
3.3960984 -1.2790775 -0.33247986 4281603590
3.4150386 -1.2637635 -0.33450937 4281406211
3.3958912 -1.222988 -0.33289814 4281931784
3.3957253 -1.1781161 -0.33323273 4281668611
3.3955665 -1.1370114 -0.33728278 4281734661
3.4144886 -1.1133252 -0.33186659 4281800198
3.3954902 -1.0993388 -0.30012783 4281734404
3.4295793 -1.0789715 -0.321558 4281865735
3.4332371 -1.0324155 -0.30407998 4281865992
3.4521761 -1.0269806 -0.328686 4281997321
3.4330275 -0.97569758 -0.3045029 4281800202
3.4519653 -0.96994841 -0.32911125 4281800458
3.4328597 -0.93032306 -0.30484125 4281538058
3.4517951 -0.92046362 -0.32186726 4281538058
1.7800237 -0.85246342 -0.3259359 4280884238
1.8246204 -0.87404132 -0.31598568 4281146396
1.8782965 -0.87949127 -0.32263771 4284107325
3.4326081 -0.86226135 -0.30534872 4281340679
3.4516542 -0.88244212 -0.32215071 4281340679
1.6893237 -0.80859727 -0.34844035 4283450938
1.771482 -0.8484472 -0.34194031 4284172597
3.432482 -0.8282305 -0.30560249 4281538315
3.4580884 -0.8232373 -0.33085516 4281472778
1.577855 -0.76472789 -0.33221173 4283646518
3.4323561 -0.79419965 -0.30585623 4281407242
3.4645882 -0.77133375 -0.31662199 4281275914
3.5102034 -0.76636446 -0.33638141 4281275658
1.4643604 -0.71846116 -0.32606328 4286677108
3.4911435 -0.73888355 -0.31163013 4281144585
3.5311072 -0.73594087 -0.32697132 4281144585
3.5580165 -0.71425807 -0.33361599 4281013001
1.330961 -0.66703624 -0.33710366 4286742133
1.3681028 -0.6830005 -0.32180122 4286808184
1.403972 -0.69748014 -0.3125999 4286874232
3.5929272 -0.68975061 -0.33315507 4280816138
3.6138511 -0.66997987 -0.3352803 4280487945
3.6568251 -0.65377647 -0.31524789 4280619273
3.6137433 -0.64617807 -0.34741697 4280619273
3.7117641 -0.6392982 -0.3201353 4280422150
3.7802067 -0.62638354 -0.32622781 4280422411
3.9377303 -0.62688333 -0.31398913 4279505418
3.9886353 -0.6089254 -0.33145177 4278717194
4.0146909 -0.61279476 -0.30703959 4278848780
4.094605 -0.59833527 -0.32690945 4279243795
4.1225162 -0.57527214 -0.3293477 4279507481
4.1504259 -0.5518387 -0.33178872 4279441689
4.1363187 -0.52257663 -0.33092013 4278981138
4.0671182 -0.45972016 -0.31229529 4279506712
4.1315088 -0.48559856 -0.33535087 4279177232
4.0269585 -0.41515052 -0.30952254 4279045646
4.0939322 -0.42246491 -0.34177256 4278848010
4.0138073 -0.37390414 -0.30882093 4279243540
4.0937319 -0.36831978 -0.34217635 4278913803
4.0396652 -0.33634964 -0.31111929 4278980107
4.0935316 -0.31417459 -0.34258005 4278913801
4.0394678 -0.28291887 -0.31151766 4278979849
4.0663776 -0.27166331 -0.34062228 4279045385
4.0392709 -0.22948813 -0.31191611 4278979596
4.0662298 -0.2313223 -0.34092307 4278782729
4.039042 -0.17167132 -0.32126251 4278914573
4.0660801 -0.19098136 -0.34122387 4278783240
3.9357839 -0.10629856 -0.33090284 4279045642
3.9738541 -0.12055593 -0.32088333 4278980621
4.0129237 -0.13501342 -0.31060219 4279046931
3.8737116 -0.078670405 -0.31301895 4279177998
1.9994557 -0.008017716 -0.3009662 4283049487
2.0054111 -0.0082845297 -0.32843411 4282983692
1.9873798 0.023229724 -0.32370397 4282721035
1.9744371 0.076994911 -0.32406765 4282195722
1.9681004 0.13013715 -0.32863855 4281670666
1.4466341 0.198561 -0.33449671 4288059287
1.4717586 0.18445976 -0.32443851 4287532169
1.5085207 0.1666379 -0.32352391 4286808185
1.6245958 0.16771838 -0.32652724 4286874750
1.7957397 0.17214809 -0.33124906 4281539860
1.8047736 0.17311439 -0.30900338 4281342996
1.937482 0.16642466 -0.32787752 4281210889
1.953822 0.16050375 -0.3083975 4281538826
1.4414158 0.22038193 -0.32721367 4287993748
1.4557621 0.24526665 -0.3259764 4286345822
1.4494305 0.26633862 -0.30688003 4285883978
1.4671243 0.2773267 -0.32506442 4285818185
1.4670404 0.32620317 -0.32291681 4285817673
1.0269408 0.39897913 -0.3055245 4281870354
1.4490029 0.37716261 -0.31838238 4285817674
1.4554809 0.36935839 -0.33114371 4285751881
0.99091649 0.40627334 -0.30377093 4279241476
1.0139204 0.40304437 -0.30848125 4281672720
1.0728917 0.40670443 -0.31802633 4282264345
1.1242408 0.41399711 -0.32353863 4279044097
1.222927 0.43737638 -0.32966498 4279438597
1.4606159 0.42353895 -0.32305622 4285620037
1.0197332 0.45495862 -0.30614683 4279504905
1.1135622 0.4955498 -0.31950754 4279438088
1.2927078 0.45305502 -0.32695419 4283185700
1.340315 0.46927413 -0.32704505 4283383337
1.3586352 0.47555715 -0.32105774 4283449641
1.4370582 0.49268073 -0.32992136 4284107056
1.4701949 0.47490963 -0.32316014 4284962365
1.0149246 0.5405373 -0.30204859 4278584321
1.1265384 0.50876963 -0.30458695 4278715648
1.1736139 0.53088421 -0.3304967 4279438851
1.201329 0.54941255 -0.34081867 4279701767
1.4355564 0.50183594 -0.31065637 4284238135
1.0703152 0.56449151 -0.31494209 4278649600
1.1285063 0.58656085 -0.32345304 4279109635
1.1806301 0.57800663 -0.31494325 4280096268
1.2092168 0.58230162 -0.33526361 4279110146
1.1851374 0.60251129 -0.33806762 4279766536
1.2068112 0.6040113 -0.3307969 4280293387
3.5334041 -1.3307272 -0.26411441 4281471752
3.3961105 -1.263813 -0.29141423 4281537285
3.4247038 -1.2781615 -0.26744032 4281603079
3.3959835 -1.2225689 -0.27674738 4281997063
3.3898101 -1.1755875 -0.27659222 4281733890
3.3956513 -1.1328253 -0.27741659 4281799941
3.4145846 -1.1052427 -0.25663567 4281733892
3.3955271 -1.0991714 -0.27766758 4281865478
3.4191957 -1.0729818 -0.2685701 4281865478
3.3952739 -1.0204782 -0.25579277 4281931016
3.4142556 -1.026446 -0.27981055 4281931016
3.3951492 -0.98682439 -0.25604376 4282062603
3.4216528 -0.96760631 -0.27182952 4281931274
3.4328971 -0.93015355 -0.28212935 4281538058
3.4518831 -0.92006594 -0.26857927 4281537802
1.782634 -0.85319954 -0.26156095 4284831808
1.824675 -0.8615399 -0.25575328 4286280017
1.8707842 -0.87142867 -0.27881211 4284436542
3.4326453 -0.8620919 -0.28263685 4281340679
3.4517419 -0.88204437 -0.26886275 4281340680
1.7365435 -0.83085281 -0.26628837 4281345562
3.4277844 -0.82682455 -0.27114302 4281472521
3.4228635 -0.78036165 -0.27112073 4281209865
3.4512393 -0.75288481 -0.28505188 4281210378
1.4614379 -0.71658462 -0.27551565 4287070066
3.4322634 -0.74848622 -0.26077074 4281275658
3.4711647 -0.72658467 -0.27161869 4281144329
3.520591 -0.71005166 -0.27954227 4281013257
3.5510478 -0.70472115 -0.29383603 4280881931
1.3479862 -0.6776318 -0.25995815 4287200889
1.3707008 -0.68549603 -0.27725077 4286807411
1.4040024 -0.6973418 -0.29405293 4286874232
3.5859914 -0.68001693 -0.27323601 4280750345
3.6139297 -0.6696229 -0.28744629 4280553480
3.6243865 -0.64747339 -0.26450816 4280553223
3.7008393 -0.63699335 -0.27023682 4280421639
3.7917948 -0.62796086 -0.27706695 4280487433
3.9377949 -0.62659162 -0.27489558 4279374602
4.0277624 -0.61452925 -0.26800311 4278848780
4.1227293 -0.60202092 -0.26092601 4279178515
4.0946717 -0.598032 -0.28625652 4279309331
4.1225834 -0.57496667 -0.28841665 4279375124
4.1645727 -0.56715322 -0.27762729 4279375124
4.2065616 -0.55896777 -0.26665527 4279309331
4.1643682 -0.51198947 -0.27803862 4279046161
4.2064586 -0.53115445 -0.26686272 4279243538
4.0806894 -0.46099311 -0.27276802 4279507480
4.1222816 -0.49319348 -0.28902638 4279836447
4.0270023 -0.41495159 -0.28286421 4279111954
4.0671072 -0.43242437 -0.25864941 4279836445
3.9879065 -0.37984765 -0.26275566 4279309332
3.9877908 -0.34462002 -0.25421786 4279046412
4.0137019 -0.32940069 -0.2737211 4278914316
4.0135293 -0.28070471 -0.26965526 4278979849
3.9873037 -0.21276286 -0.25520104 4279111954
4.0133424 -0.23207486 -0.27444682 4278980110
4.0261378 -0.17514485 -0.2713654 4279177746
4.0324407 -0.12212786 -0.27213621 4279244053
3.9357734 -0.079875462 -0.27897215 4279638296
3.9868157 -0.080905676 -0.25618425 4278849033
1.9994993 -0.0078200595 -0.27448004 4283180558
1.9822346 0.026390102 -0.27761617 4282852622
1.968681 0.077134803 -0.27744162 4282392587
1.9611793 0.12883063 -0.27683476 4281933066
1.4487426 0.1993162 -0.26776975 4288125595
1.4736123 0.18555316 -0.27651477 4287532427
1.5225103 0.16841474 -0.27590445 4286611323
1.6616369 0.17164521 -0.27354318 4286743165
1.8218228 0.17487459 -0.27568102 4281277458
1.9382514 0.16986693 -0.27010211 4281342476
1.9561969 0.16087091 -0.28285971 4281604619
1.4405948 0.22322646 -0.27513471 4288059028
1.4535375 0.24796396 -0.28349605 4285884240
1.4691322 0.27675021 -0.27842075 4285949772
1.4719964 0.32497385 -0.27237397 4285949259
0.9974947 0.39918929 -0.27258983 4279176197
1.0197688 0.39733472 -0.27380097 4281213200
1.1060393 0.3973234 -0.25047821 4279964173
1.4490029 0.38637817 -0.29816672 4285949001
1.4556856 0.37345219 -0.27260211 4285883723
0.98624831 0.41524035 -0.27629152 4279044612
1.0224392 0.41196832 -0.27759406 4281278992
1.073577 0.40362787 -0.27377129 4281016078
1.1216511 0.41100365 -0.28169799 4278912769
1.1664084 0.4180637 -0.28350559 4279701257
1.4489497 0.40077439 -0.29827407 4285817672
1.4710882 0.4260428 -0.27479732 4285883466
0.91327953 0.49792159 -0.28305075 4278780928
0.98682892 0.45417258 -0.25052449 4278846721
1.0225381 0.47413197 -0.2609894 4278715648
1.087296 0.49155155 -0.28800797 4278650368
1.4385413 0.48397934 -0.27369305 4285553986
1.4662192 0.46450967 -0.27572018 4285817416
0.92448163 0.5077222 -0.28012711 4278978565
0.9723534 0.53152752 -0.2647281 4278584320
1.0183827 0.53974235 -0.26916921 4279110148
1.0585316 0.52823657 -0.26556581 4278780928
1.1188139 0.5326255 -0.28669116 4279110402
1.0433962 0.55544287 -0.28629762 4278649856
1.0749789 0.56030828 -0.28614607 4280622355
1.1267431 0.56871939 -0.28942475 4281477661
1.1552839 0.5828619 -0.29369986 4284041011
3.5955427 -1.3541012 -0.23308422 4281734151
3.4247365 -1.2664794 -0.22216411 4281471236
3.3960159 -1.2110156 -0.23191059 4281340418
3.4214606 -1.2351413 -0.21842937 4282063371
3.3958912 -1.1773616 -0.23216155 4281536770
3.4149091 -1.1725907 -0.21095891 4281536770
3.3957255 -1.1324899 -0.23249614 4281799684
3.421015 -1.1146034 -0.21932817 4281733892
3.3865263 -1.0734214 -0.22112633 4281865478
3.3223128 -1.0088454 -0.20625651 4281865478
3.3647208 -1.0368493 -0.22362624 4281865478
3.3281989 -0.98144072 -0.21421292 4281931271
3.3644466 -0.96271104 -0.22417903 4281865735
3.3950577 -0.94161737 -0.21145783 4281799945
3.4140382 -0.94714338 -0.23522729 4281799945
3.4719541 -0.92205143 -0.23034416 4281471751
3.5109088 -0.90471691 -0.21920155 4281406470
1.8221684 -0.85416883 -0.24340013 4281343004
3.4917691 -0.87683117 -0.24128997 4281274886
3.5212889 -0.87252557 -0.2201176 4281406472
3.5938008 -0.86691588 -0.20104799 4281340936
3.4716253 -0.83730215 -0.24016467 4281340937
3.5106089 -0.8235057 -0.21980707 4281209865
3.5726528 -0.82633954 -0.20013754 4281275658
1.5562857 -0.75342023 -0.24887986 4281936927
1.6394467 -0.78330219 -0.21888494 4280686610
3.4634051 -0.77344847 -0.2308577 4281275145
1.5292935 -0.73984593 -0.21422589 4287859823
3.4862301 -0.72566193 -0.23051023 4281144073
3.5311317 -0.70023024 -0.23376274 4281078792
1.3340148 -0.67019951 -0.22644964 4287134326
1.3697208 -0.67942852 -0.22350219 4286873976
1.4229122 -0.6969673 -0.22749034 4286938999
3.5678606 -0.67447692 -0.21988389 4280881673
3.6139593 -0.6451965 -0.21587346 4280750345
3.7119257 -0.63856483 -0.22187163 4280356358
3.7918568 -0.62767994 -0.2394236 4280487687
3.8159111 -0.63156021 -0.21568389 4280160264
3.9378378 -0.62639713 -0.24883322 4279440395
3.9889066 -0.63450867 -0.22565477 4279835410
4.0813766 -0.62248939 -0.21753566 4278717709
4.1788006 -0.61019689 -0.23681088 4279178517
4.2068596 -0.61417907 -0.21055342 4279112726
4.2357459 -0.59061635 -0.22623073 4279441688
4.2656317 -0.56680816 -0.24215971 4279572503
4.3257046 -0.57477897 -0.21693286 4279375896
4.285481 -0.52226114 -0.23416896 4279243795
4.3255987 -0.54617846 -0.21714614 4279046931
4.0942822 -0.46216363 -0.21951094 4279638042
3.9371107 -0.4179298 -0.22432382 4280362793
3.8629453 -0.37147644 -0.2203958 4279638297
3.9368215 -0.33982745 -0.22490616 4279308814
3.961731 -0.31588075 -0.22652884 4279045389
3.9875903 -0.27849439 -0.22830942 4278979596
3.9787264 -0.22079675 -0.21949591 4279375641
3.9872708 -0.18609586 -0.21579762 4279704605
4.0131755 -0.16086279 -0.21740146 4279638556
4.0390067 -0.12202788 -0.23247972 4279309333
4.0660529 -0.12274187 -0.20710932 4279440150
4.0388556 -0.072916634 -0.21501531 4279176975
2.019073 -0.0076912893 -0.23029698 4283048974
2.1316152 -0.0086833332 -0.20787989 4282917905
1.9925413 0.037747122 -0.23427796 4282786829
2.0116067 0.016068505 -0.22448526 4282983695
1.9799513 0.077866614 -0.226531 4282589967
1.9659505 0.12945026 -0.22533348 4281867530
1.4475491 0.19940788 -0.23394476 4288257182
1.4810048 0.18409535 -0.22444853 4287467146
1.5283313 0.1694077 -0.22132447 4286677116
1.6604191 0.17189161 -0.22388476 4286874496
1.7999136 0.17329913 -0.22467068 4281474320
1.8065902 0.17394537 -0.21750717 4281342992
1.9314475 0.1658096 -0.22168835 4281539595
1.4360609 0.22655633 -0.22359528 4287861391
1.4588385 0.20105749 -0.2067634 4288388769
1.4496161 0.25742233 -0.21553385 4286212946
1.4651741 0.28313097 -0.22381446 4286147153
1.4607481 0.32696867 -0.22258972 4286081103
0.99756277 0.39949799 -0.23122512 4278848004
1.0255871 0.39269623 -0.22137748 4279242246
1.0674579 0.39171672 -0.23657727 4279701768
1.4571335 0.37451687 -0.22242184 4286081102
0.94576943 0.44009468 -0.20819256 4278913026
0.97724247 0.42104074 -0.2257434 4278781954
1.4674889 0.42309371 -0.22563148 4286081102
0.94648153 0.46034381 -0.20530577 4279241991
0.9685666 0.47663504 -0.22192526 4278781440
1.33486 0.4592824 -0.22247179 4285816136
1.3928378 0.4694742 -0.21349296 4285883213
1.4357784 0.47621015 -0.23425792 4285949257
1.4797789 0.46683845 -0.22338498 4286080845
0.94964099 0.5261746 -0.20399451 4278781441
0.96972811 0.51944494 -0.22383484 4278650113
1.0168171 0.51483643 -0.243689 4279111431
3.5335577 -1.3300297 -0.1706448 4281865224
3.5535455 -1.337827 -0.19511063 4281733892
3.4248106 -1.2661418 -0.17692904 4281602307
3.4151733 -1.2287416 -0.1766592 4281866250
3.4263911 -1.1808095 -0.17990865 4281471235
3.4529452 -1.162665 -0.16780153 4281537027
3.4242487 -1.1191989 -0.1893184 4281799942
3.4528186 -1.1284459 -0.1680567 4281668613
3.3775721 -1.070276 -0.18699722 4281865478
3.41465 -1.0820072 -0.16645965 4281734406
3.3223491 -1.0086815 -0.18427965 4281931017
3.3648062 -1.0364616 -0.17166479 4281865479
3.3222272 -0.97575188 -0.18452516 4281865224
3.3709264 -0.9789868 -0.17245917 4281865481
3.4142327 -0.96919942 -0.16730081 4281799945
3.4521859 -0.95734888 -0.16933249 4281734924
3.4141123 -0.94680631 -0.1900551 4281669129
3.4854124 -0.9361335 -0.18655375 4281406472
3.53211 -0.93312776 -0.16191997 4281341450
3.5677645 -0.91330242 -0.1755804 4281275656
3.5834162 -0.88178182 -0.16473126 4281275657
3.6148572 -0.87189364 -0.17830554 4281275656
3.5726752 -0.81823361 -0.16872405 4281210121
3.5245228 -0.77598685 -0.16667484 4281210121
3.5515254 -0.78609222 -0.18747409 4281209865
1.4892458 -0.72000331 -0.19877318 4280818966
3.531338 -0.73489463 -0.18676682 4281210121
3.5512216 -0.70393193 -0.18808673 4281078792
1.3179003 -0.6600405 -0.17285691 4286147690
1.3693694 -0.67662889 -0.17819907 4286808952
1.4136515 -0.69206434 -0.19332585 4286874490
3.5312228 -0.68794876 -0.15206379 4281341709
3.5721226 -0.66863632 -0.16979316 4281079049
3.5930448 -0.64091551 -0.15517461 4281012486
3.6140184 -0.64492869 -0.17999794 4280946439
3.7120066 -0.63819879 -0.17281263 4280553222
3.791981 -0.62711811 -0.16413663 4280291339
3.8159528 -0.63137162 -0.19042934 4280225544
3.9759648 -0.63209736 -0.1854917 4279768337
4.0679359 -0.62007934 -0.17647621 4278717966
4.178936 -0.60957778 -0.15383631 4279506712
4.2069044 -0.61397123 -0.18270981 4279178519
4.2358613 -0.59009337 -0.1561417 4279177747
4.2658291 -0.59459037 -0.18548091 4279046933
4.325798 -0.57435173 -0.15966977 4279177749
4.371717 -0.56633031 -0.19041058 4279046933
4.3255634 -0.51725757 -0.17441206 4280627253
4.3557048 -0.54964048 -0.16099092 4279375644
4.0943718 -0.46175912 -0.16530699 4282533964
3.8381627 -0.4066655 -0.16787282 4286283389
3.8631289 -0.40960255 -0.19453768 4281482305
3.8627515 -0.30742404 -0.1952996 4279242770
3.8866565 -0.27067956 -0.17106819 4279045389
3.9241214 -0.27358735 -0.19869702 4279045389
3.9302258 -0.22849365 -0.18636236 4279111955
4.030623 -0.17010422 -0.16932832 4279968548
4.0304403 -0.11677936 -0.160868 4280033314
4.0661459 -0.13598792 -0.18008584 4280428586
3.9358482 -0.053063393 -0.17491679 4279242770
4.0389466 -0.08155565 -0.17928973 4279440149
2.1616352 -0.0089074634 -0.19648644 4282852625
2.2486634 -0.0096962601 -0.18204738 4282852368
2.3076961 -0.010168793 -0.16389419 4282983698
1.9977187 0.042452399 -0.18197754 4282787087
2.0185478 0.023371089 -0.17705424 4282918417
2.0736275 0.0059310878 -0.16797644 4282983953
1.9815372 0.078287445 -0.17427249 4282721297
1.9457304 0.14292309 -0.16258129 4281867276
1.9619976 0.12311016 -0.17704836 4282064654
1.4708405 0.18820006 -0.17424929 4287532938
1.5186054 0.17494169 -0.17972244 4286875011
1.5550252 0.17259569 -0.15822047 4286611837
1.6783912 0.17395754 -0.17618795 4286676601
1.8234906 0.17577267 -0.17321029 4281408270
1.9326012 0.16535209 -0.17340875 4281604620
1.4453336 0.22830158 -0.17267036 4288190359
1.4550967 0.2008245 -0.17249624 4288257183
1.4496098 0.2801629 -0.16926286 4286344275
1.4548484 0.27490431 -0.17602119 4286344275
1.4489927 0.31043065 -0.17263268 4286278738
1.4560468 0.33093122 -0.17361099 4286278482
0.99490726 0.39884597 -0.17614011 4278979591
1.0276974 0.38815501 -0.17587171 4279045125
1.0710679 0.38338152 -0.16426072 4279307013
1.1157305 0.38650978 -0.16005068 4282398248
1.1535434 0.39147979 -0.16155238 4282002209
1.4492298 0.37277079 -0.19237298 4286212430
1.4623735 0.37616515 -0.17385052 4286278224
0.93938208 0.44075587 -0.17595237 4279110661
0.9765178 0.42063439 -0.1741104 4278781954
1.1881464 0.40667835 -0.16625951 4282727212
1.3250264 0.43879756 -0.16788985 4285881927
1.4479946 0.4494656 -0.16400228 4286277966
1.4730545 0.4276014 -0.17640814 4286212687
0.9416312 0.4684163 -0.17108645 4279110407
0.95374757 0.491018 -0.17519233 4278650112
1.365001 0.45171231 -0.15483448 4286276941
1.4396945 0.46125492 -0.16794689 4286277709
1.4561636 0.45896316 -0.19155385 4286211919
0.94082564 0.51433015 -0.16954741 4278649856
0.95545411 0.50858051 -0.18379934 4278584576
3.553618 -1.3255637 -0.1246986 4281733894
3.4343791 -1.2694448 -0.1433205 4281536773
3.4734263 -1.2724699 -0.12206277 4281339907
3.4266 -1.2166953 -0.13429025 4281406984
3.4630556 -1.1772293 -0.13384655 4281406728
3.4778957 -1.1277469 -0.1204434 4281603850
3.4336662 -1.0766037 -0.14475843 4281865480
3.4776869 -1.0673853 -0.11226264 4281734921
3.4144785 -1.0254349 -0.14429416 4281865992
3.4825222 -1.0229034 -0.1127507 4281932299
3.4143536 -0.99159229 -0.14454648 4281931531
3.4823329 -0.97695565 -0.12457902 4281735178
3.5112336 -0.95042986 -0.12594204 4281603853
3.5163784 -0.91691345 -0.11477608 4281341452
3.5109711 -0.86904544 -0.10331921 4281012745
3.5519691 -0.87955123 -0.12802428 4281276687
3.4817755 -0.81574881 -0.10280965 4281078538
3.5212705 -0.82535434 -0.12727258 4281276941
3.4715788 -0.76752377 -0.1143422 4281079308
3.5106328 -0.78800762 -0.12715313 4281276941
3.4324412 -0.72461247 -0.10195675 4281144329
3.4813783 -0.72392845 -0.13808385 4281145100
1.2971172 -0.65043432 -0.12149246 4282986030
1.3211364 -0.65268606 -0.1150623 4286149485
3.4762428 -0.67672217 -0.11524187 4281144329
3.531132 -0.65276134 -0.12895744 4281012486
1.2950785 -0.64956647 -0.14270926 4284171843
1.3095714 -0.64836919 -0.14437686 4286874234
3.5101564 -0.64861542 -0.10496285 4281012486
3.5615838 -0.63489968 -0.11849587 4281143815
3.6350605 -0.62419599 -0.10905426 4281012745
3.6570342 -0.62824649 -0.13391517 4280816136
3.7345092 -0.61710227 -0.1246152 4280619019
3.8880241 -0.61729133 -0.1170182 4280162065
3.9129953 -0.62155128 -0.14366658 4279767823
4.0279813 -0.61353511 -0.13479759 4279045646
4.1789818 -0.6093713 -0.12617812 4279704089
4.2359071 -0.58988416 -0.12810612 4279375898
4.2808471 -0.56790322 -0.11555944 4280165416
4.2956872 -0.52257347 -0.11152816 4281024073
4.3257389 -0.54553747 -0.13125147 4279967783
4.1784706 -0.4712306 -0.12720816 4282801256
4.2065277 -0.4742811 -0.100216 4280893773
4.0143104 -0.42560282 -0.1224194 4285294699
3.874696 -0.26956677 -0.144889 4279111182
3.911747 -0.27212992 -0.12037378 4279176975
3.8865561 -0.23193251 -0.14562437 4279176979
3.928195 -0.21709311 -0.12999332 4280887850
3.9873793 -0.18560335 -0.14979737 4279902242
4.0263786 -0.17400739 -0.12470198 4281612345
3.9871304 -0.10629205 -0.12398721 4279638298
4.0392327 -0.1345872 -0.1254025 4281019953
3.9359875 -0.078902997 -0.14866027 4279506710
2.0327814 -0.0068879416 -0.10400498 4282787092
2.1537535 -0.0082874103 -0.12444611 4282984211
2.2737229 -0.0096880551 -0.14642532 4282984209
1.9929351 0.03588625 -0.11696142 4283115540
2.0150537 0.017101785 -0.12731867 4283115282
2.0771723 0.006120766 -0.14082821 4283115282
1.9714383 0.078355931 -0.12110369 4282655760
1.9474546 0.14206468 -0.12012576 4281933325
1.9560478 0.11673122 -0.12045186 4282195982
1.4748808 0.1856281 -0.12355248 4287401354
1.5060313 0.17766991 -0.14335287 4286612355
1.5570837 0.17306803 -0.12230175 4286677628
1.6857275 0.17497924 -0.13230541 4284768096
1.7210913 0.17854685 -0.10654771 4283056445
1.8400433 0.17750102 -0.13820271 4281473547
1.873569 0.18064624 -0.11588862 4281539341
1.930108 0.16713794 -0.12275236 4281604876
1.4395928 0.2256718 -0.12212868 4288454045
1.4549601 0.20108683 -0.13389678 4288256925
1.4485797 0.270255 -0.12358093 4286541912
1.4539306 0.28681722 -0.12571099 4286475863
1.4646045 0.32591665 -0.12606964 4286475861
0.99562663 0.39941669 -0.13332872 4279307784
1.0224169 0.39745009 -0.14357255 4279176969
1.084833 0.39621082 -0.13004652 4279044869
1.1132643 0.39049482 -0.13107604 4280819224
1.1542312 0.39957187 -0.13108006 4284372817
1.449301 0.39261091 -0.10604539 4286672983
1.4699621 0.37433746 -0.12764065 4286475860
0.94733745 0.44650558 -0.1262325 4279242247
0.97262293 0.42375445 -0.12450238 4279110405
1.0285214 0.40439722 -0.11715741 4280294677
1.073732 0.40479597 -0.11864593 4278913283
1.1881881 0.41490468 -0.12314599 4282857000
1.2111675 0.41045919 -0.14550567 4281147933
1.2641071 0.42780781 -0.14347175 4281343005
1.3160498 0.44483542 -0.14062937 4281936416
1.4492655 0.40220836 -0.10611694 4286541397
1.4586891 0.42472506 -0.12711528 4286409809
0.94633955 0.47602683 -0.12468862 4278979077
0.95143718 0.48665929 -0.11404475 4278649856
1.3180289 0.45428404 -0.13216715 4286146123
1.3914611 0.4695262 -0.1394565 4286277197
1.4316753 0.48514852 -0.12685791 4286277967
1.4717798 0.47319442 -0.12632157 4286409552
0.93187565 0.50779366 -0.12278447 4278649856
1.4328972 0.50234437 -0.10572751 4283184938
1.4831952 0.50293356 -0.12568848 4286409294
3.5957086 -1.3291955 -0.078704603 4281734406
3.637805 -1.3447357 -0.05556675 4281799945
3.4834723 -1.2642643 -0.076361448 4281274629
3.5125108 -1.2749273 -0.077063076 4281470980
3.4342768 -1.2007054 -0.052980471 4280683780
3.4573123 -1.2227753 -0.080663852 4280946179
3.427799 -1.1683661 -0.068249509 4281012229
3.4631121 -1.1769727 -0.099490702 4281275139
3.4245043 -1.1294764 -0.05901859 4281143559
3.4729078 -1.1114446 -0.077320635 4281340422
3.4338574 -1.0872692 -0.053826313 4281340681
3.4777627 -1.0670091 -0.066289522 4281537287
3.4926164 -1.0294167 -0.070724048 4281734152
3.5184219 -0.97514778 -0.067809768 4281799945
3.5217106 -0.91797519 -0.068299189 4281013258
3.49195 -0.85254699 -0.079744168 4280946952
3.5180559 -0.87440985 -0.064689331 4280684808
3.4785168 -0.81847996 -0.064311065 4280816138
3.4566844 -0.77522218 -0.068005309 4281013259
3.4325204 -0.73578656 -0.079160288 4281078538
3.4648051 -0.71604496 -0.064790316 4281013260
1.3140845 -0.65588856 -0.071466357 4283776827
1.3681071 -0.66981709 -0.070890322 4286742648
1.4368548 -0.68832982 -0.063555181 4284963148
1.4573451 -0.68393546 -0.059762616 4282920992
3.4712956 -0.67541963 -0.080571868 4281012745
3.520869 -0.68512762 -0.058420613 4280881929
3.5722752 -0.65998828 -0.059536651 4280816138
3.5101945 -0.64844197 -0.081734486 4280946952
3.5511353 -0.63271981 -0.082862474 4281143818
3.6246581 -0.63402641 -0.072705537 4280881932
3.6791675 -0.63157225 -0.061677821 4280881679
3.7235842 -0.61487126 -0.074851923 4280685327
3.8760805 -0.61505181 -0.078139938 4281150247
3.9890482 -0.60705376 -0.080650933 4279966493
4.1230431 -0.60059547 -0.069914415 4281481537
4.1510124 -0.60498202 -0.097860888 4280295460
4.1789708 -0.5813303 -0.071067795 4283063395
4.2214174 -0.57349759 -0.08581508 4282009418
4.2657537 -0.5232386 -0.073069632 4282472542
4.2355847 -0.4774451 -0.072870173 4280892226
4.0943556 -0.42054346 -0.084303871 4283915615
4.1784596 -0.44318956 -0.07209783 4281219131
3.936651 -0.23471865 -0.095370747 4279308306
3.9615591 -0.21010426 -0.096170604 4285889654
3.9874666 -0.1852093 -0.096997201 4285098596
4.0134339 -0.16868608 -0.080045559 4282006332
3.9611938 -0.10520855 -0.083838068 4282469193
4.0392981 -0.13428782 -0.085285895 4285758070
2.0198038 -0.0066492073 -0.089965664 4283050004
2.0948703 -0.0071364027 -0.051682223 4282918932
2.1243358 -0.0076030977 -0.073483519 4282787603
1.9948056 0.03704362 -0.077852882 4283378197
2.0216045 0.011277464 -0.070045926 4283378452
1.9759294 0.078838743 -0.075568028 4282853139
1.9431509 0.13935632 -0.072960176 4282130703
1.9585725 0.11587704 -0.0777881 4282327566
1.478915 0.18491231 -0.077127114 4287401355
1.584956 0.17628314 -0.071989223 4286743168
1.7311432 0.17975339 -0.072879188 4282133288
1.8766289 0.18118922 -0.07887233 4281539344
1.9261912 0.16648445 -0.074369252 4281736462
1.4215207 0.22065608 -0.07451091 4288651937
1.4413399 0.27234802 -0.078789741 4286739035
1.4583296 0.2947562 -0.065332733 4286739034
1.4495842 0.3227995 -0.090425923 4286672984
1.4590932 0.32878006 -0.071832858 4286738777
1.0797451 0.39947876 -0.06273777 4279899406
1.1069926 0.39388674 -0.086642958 4281804570
1.4429328 0.38685089 -0.067304991 4286738776
1.4551179 0.36836779 -0.082150213 4286738519
0.9631784 0.43828633 -0.0811878 4279373834
1.0220722 0.40866303 -0.074581124 4279374090
1.0720017 0.40219274 -0.075370416 4279044869
1.1482836 0.41324264 -0.069596007 4280556308
1.4407481 0.42298695 -0.070678875 4286738519
1.4574758 0.42798364 -0.094478555 4286607189
0.9384374 0.47802317 -0.073162183 4278979078
0.95354044 0.45832956 -0.054893371 4280623651
1.4376316 0.48396987 -0.072473966 4286343246
1.4628065 0.47159195 -0.089743026 4286606674
0.91798484 0.50374246 -0.079219364 4278715648
1.4359369 0.51129049 -0.062178142 4285356356
3.5747776 -1.3208951 -0.01921778 4281275400
